ply
format ascii 1.0
element vertex 786
property float x
property float y
property float z
property uchar red
property uchar green
property uchar blue
property uchar alpha
element face 0
property list uchar int vertex_indices
end_header
0.058919199412163725 -0.03753189075038656 0.971 20 88 108 255
0.06064684391188096 -0.0376865020408104 0.975 19 88 107 255
0.06225966063981889 -0.03776380768602232 0.977 21 95 115 255
0.06407476870906889 -0.03795707179905211 0.982 27 100 120 255
0.06590558032242638 -0.03815033591208191 0.987 27 99 119 255
0.06761551658915836 -0.03826629437989979 0.99 27 98 117 255
0.06926526757593074 -0.03834360002511171 0.992 33 102 121 255
-0.10135506672222722 -0.039356356759835995 0.979 153 177 193 255
-0.09964435192568843 -0.039275955622430817 0.977 155 178 195 255
-0.09794051729932679 -0.03919555448502563 0.975 157 180 197 255
-0.09614463291902564 -0.039074952778917864 0.972 161 184 201 255
-0.09426129379062069 -0.0389141505041075 0.968 158 184 200 255
-0.09248677321656473 -0.03879354879799973 0.965 161 189 204 255
-0.09072213954436471 -0.03867294709189196 0.962 98 138 159 255
-0.089152917482178 -0.03863274652318937 0.961 17 67 96 255
-0.08731370089447654 -0.038471944248379006 0.957 20 75 102 255
-0.0856667949853924 -0.03839154311097383 0.955 15 72 95 255
-0.08393847227563994 -0.03827094140486605 0.952 8 65 88 255
-0.08239323002374113 -0.038230740836163464 0.951 2 56 80 255
-0.08068143461355426 -0.03811013913005569 0.948 0 49 72 255
-0.07914656318800083 -0.0380699385613531 0.947 2 52 73 255
-0.07753328034240872 -0.03798953742394792 0.945 1 49 69 255
-0.07584616267728173 -0.03786893571784015 0.942 0 47 66 255
-0.07408978335882936 -0.03770813344302979 0.938 0 47 66 255
-0.07242362908503079 -0.037587531736922024 0.935 0 45 65 255
-0.07084309855687686 -0.03750713059951684 0.933 0 45 65 255
-0.06926919096595771 -0.03742672946211166 0.931 0 48 68 255
-0.06755614039380996 -0.0372659271873013 0.927 0 47 67 255
-0.06599849035053422 -0.03718552604989612 0.925 0 45 65 255
-0.06451724520177429 -0.03714532548119353 0.924 0 45 65 255
-0.06303951698160935 -0.03710512491249093 0.923 0 45 67 255
-0.06149852024007577 -0.037024723775085755 0.921 0 45 66 255
-0.06009456413549139 -0.037024723775085755 0.921 0 44 66 255
-0.0586273160579667 -0.036984523206383166 0.92 0 46 68 255
-0.05722573989633905 -0.036984523206383166 0.92 0 46 68 255
-0.055763897280925394 -0.03694432263768058 0.919 0 45 67 255
-0.05436465833755058 -0.03694432263768058 0.919 0 43 65 255
-0.052965810982425934 -0.03694432263768058 0.919 0 42 64 255
-0.0515673450342678 -0.03694432263768058 0.919 0 43 65 255
-0.05016925032280696 -0.03694432263768058 0.919 0 43 65 255
-0.04877151668849052 -0.03694432263768058 0.919 0 44 66 255
-0.04732258432605673 -0.03690412206897798 0.918 0 44 64 255
-0.04592706258493945 -0.03690412206897798 0.918 0 44 64 255
-0.04453187114383307 -0.03690412206897798 0.918 0 44 64 255
-0.04313699989409482 -0.03690412206897798 0.918 0 44 64 255
-0.04174243873630777 -0.03690412206897798 0.918 0 43 63 255
-0.040304225316828396 -0.03686392150027539 0.917 0 44 64 255
-0.03891177256731344 -0.03686392150027539 0.917 0 43 63 255
-0.03756051495270429 -0.03690412206897798 0.918 0 42 62 255
-0.036127695637625835 -0.03686392150027539 0.917 0 43 63 255
-0.034736051356238085 -0.03686392150027539 0.917 0 44 64 255
-0.03334465647564089 -0.03686392150027539 0.917 0 43 63 255
-0.031953500963735025 -0.03686392150027539 0.917 0 43 65 255
-0.030562574795302413 -0.03686392150027539 0.917 0 43 65 255
-0.029171867951714465 -0.03686392150027539 0.917 0 43 65 255
-0.02775107448779801 -0.0368237209315728 0.916 0 43 65 255
-0.02636229240058203 -0.0368237209315728 0.916 0 45 67 255
-0.02497369941253856 -0.0368237209315728 0.916 0 45 67 255
-0.023585285539411572 -0.0368237209315728 0.916 0 45 67 255
-0.02219704080208641 -0.0368237209315728 0.916 0 45 67 255
-0.02080895522630325 -0.0368237209315728 0.916 0 46 68 255
-0.01944222082800406 -0.03686392150027539 0.917 0 47 72 255
-0.018052908608105902 -0.03686392150027539 0.917 0 46 71 255
-0.01670006979825689 -0.03694432263768058 0.919 2 49 74 255
-0.015324634050908626 -0.036984523206383166 0.92 2 52 74 255
-0.01393113613214301 -0.036984523206383166 0.92 0 50 71 255
-0.012551366025447378 -0.037024723775085755 0.921 0 54 73 255
-0.01116865683198114 -0.037064924343788344 0.922 3 60 81 255
-0.009772399690983737 -0.037064924343788344 0.922 3 60 81 255
-0.008376212570002881 -0.037064924343788344 0.922 1 60 81 255
-0.006980085462452723 -0.037064924343788344 0.922 6 65 86 255
-0.005584008363467289 -0.037064924343788344 0.922 3 62 83 255
-0.004187971269614472 -0.037064924343788344 0.922 4 63 84 255
-0.00279196417860748 -0.037064924343788344 0.922 3 62 83 255
-0.0013959770890204547 -0.037064924343788344 0.922 3 61 83 255
-4.5164973952554386e-17 -0.037064924343788344 0.922 3 62 83 255
0.0013959770890203645 -0.037064924343788344 0.922 0 59 77 255
0.00279196417860739 -0.037064924343788344 0.922 0 56 74 255
0.004187971269614382 -0.037064924343788344 0.922 0 56 73 255
0.005584008363467199 -0.037064924343788344 0.922 0 56 74 255
0.006972514870844767 -0.037024723775085755 0.921 0 57 75 255
0.00837621257000279 -0.037064924343788344 0.922 0 58 79 255
0.009772399690983646 -0.037064924343788344 0.922 0 60 81 255
0.011192883853308556 -0.03714532548119353 0.924 0 59 82 255
0.01259224995386894 -0.03714532548119353 0.924 0 57 79 255
0.014006848828513264 -0.03718552604989612 0.925 0 60 82 255
0.015424577316457938 -0.03722572661859871 0.926 2 63 85 255
0.01684544581391083 -0.0372659271873013 0.927 3 64 86 255
0.018249777840473384 -0.0372659271873013 0.927 5 67 89 255
0.019675442669997475 -0.037306127756003886 0.928 5 67 89 255
0.021081561626647746 -0.037306127756003886 0.928 3 64 86 255
0.022536296884214272 -0.03738652889340907 0.93 5 66 88 255
0.023971507464183504 -0.03742672946211166 0.931 5 67 89 255
0.02540992123633827 -0.03746693003081425 0.932 8 69 91 255
0.02685154891893335 -0.03750713059951684 0.933 7 68 88 255
0.028326697211889802 -0.037587531736922024 0.935 7 68 88 255
0.029776301420724818 -0.03762773230562461 0.936 7 68 88 255
0.031195823346131926 -0.03762773230562461 0.936 8 69 89 255
0.03268526052778993 -0.03770813344302979 0.938 10 71 91 255
0.03414463732892771 -0.03774833401173238 0.939 14 75 95 255
0.03564517374724096 -0.03782873514913756 0.941 18 79 99 255
0.037073240561620306 -0.03782873514913756 0.941 21 82 102 255
0.03854248919983372 -0.03786893571784015 0.942 20 80 100 255
0.040057484518586484 -0.03794933685524533 0.944 20 82 102 255
0.04157884094844011 -0.03802973799265051 0.946 19 80 100 255
0.043061099654992774 -0.0380699385613531 0.947 17 81 100 255
0.04454670577298671 -0.03811013913005569 0.948 22 86 106 255
0.0461326900411603 -0.038230740836163464 0.951 21 87 105 255
0.047778153342720134 -0.03839154311097383 0.955 21 87 105 255
0.04928147125894351 -0.03843174367967642 0.956 21 87 105 255
0.050841254611070544 -0.038512144817081595 0.958 18 84 104 255
0.05246207786748356 -0.03863274652318937 0.961 19 85 105 255
0.05403629300108792 -0.03871314766059455 0.963 18 84 104 255
0.05561698324052333 -0.03879354879799973 0.965 17 83 103 255
0.057204161711002524 -0.03887394993540491 0.967 19 85 105 255
0.05897987829930293 -0.039074952778917864 0.972 19 88 107 255
0.060709045803072625 -0.03923575505372823 0.976 21 90 109 255
0.06232338598336015 -0.039316156191133406 0.978 22 94 115 255
0.06407476870906889 -0.03947695846594377 0.982 29 101 122 255
0.06590558032242638 -0.03967796130945672 0.987 30 103 124 255
0.06761551658915836 -0.03979856301556449 0.99 31 102 123 255
0.06926526757593074 -0.039878964152969675 0.992 31 102 121 255
-0.10156212508121032 -0.040955285479544495 0.981 153 175 192 255
-0.09974634205048444 -0.04083003995820032 0.978 155 177 194 255
-0.09804096911194148 -0.04074654294397087 0.976 158 181 197 255
-0.09604571868762747 -0.04053780040839725 0.971 161 184 198 255
-0.09435867116023909 -0.0404543033941678 0.969 161 184 198 255
-0.09248677321656473 -0.04028730936570891 0.965 155 180 196 255
-0.09081644530272685 -0.040203812351479455 0.963 142 176 193 255
-0.0892456884681116 -0.04016206384436473 0.962 32 78 102 255
-0.08749617466855067 -0.04003681832302056 0.959 21 74 98 255
-0.08593590533613185 -0.03999506981590584 0.958 17 71 94 255
-0.08411481360395012 -0.03982807578744694 0.954 2 54 75 255
-0.08247986854111625 -0.039744578773217486 0.952 2 57 76 255
-0.08076654161209176 -0.039619333251873314 0.949 0 54 70 255
-0.07914656318800083 -0.03953583623764387 0.947 3 57 71 255
-0.07753328034240872 -0.03945233922341442 0.945 1 52 68 255
-0.07576564658102135 -0.03928534519495552 0.941 0 51 67 255
-0.07408978335882936 -0.03916009967361135 0.938 0 52 68 255
-0.07242362908503079 -0.03903485415226718 0.935 1 52 68 255
-0.07084309855687686 -0.03895135713803773 0.933 1 52 69 255
-0.06926919096595771 -0.03886786012380828 0.931 3 53 72 255
-0.06762901648916465 -0.03874261460246411 0.928 0 50 69 255
-0.0660698400698321 -0.03865911758823466 0.926 0 48 67 255
-0.06458706906021776 -0.038617369081119936 0.925 0 49 68 255
-0.06317611398481979 -0.038617369081119936 0.925 1 49 69 255
-0.061698841152909904 -0.038575620574005216 0.924 0 48 68 255
-0.060225062646100495 -0.03853387206689049 0.923 0 48 68 255
-0.05875476674504923 -0.038492123559775764 0.922 0 48 68 255
-0.057287941787530716 -0.03845037505266104 0.921 1 49 69 255
-0.05582457616806459 -0.03840862654554632 0.92 0 47 67 255
-0.05442381465783083 -0.03840862654554632 0.92 0 43 63 255
-0.05302344516194979 -0.03840862654554632 0.92 0 44 65 255
-0.0515673450342678 -0.03836687803843159 0.919 0 46 68 255
-0.05016925032280696 -0.03836687803843159 0.919 0 45 67 255
-0.04877151668849052 -0.03836687803843159 0.919 0 47 68 255
-0.04732258432605673 -0.038325129531316865 0.918 0 45 65 255
-0.04592706258493945 -0.038325129531316865 0.918 0 44 64 255
-0.04453187114383307 -0.038325129531316865 0.918 0 45 65 255
-0.04313699989409482 -0.038325129531316865 0.918 0 46 66 255
-0.04174243873630777 -0.038325129531316865 0.918 0 45 65 255
-0.040304225316828396 -0.038283381024202146 0.917 0 45 66 255
-0.03891177256731344 -0.038283381024202146 0.917 0 47 69 255
-0.03756051495270429 -0.038325129531316865 0.918 0 44 66 255
-0.03616709334279227 -0.038325129531316865 0.918 0 44 66 255
-0.034736051356238085 -0.038283381024202146 0.917 0 45 67 255
-0.03334465647564089 -0.038283381024202146 0.917 0 44 68 255
-0.031953500963735025 -0.038283381024202146 0.917 0 46 69 255
-0.030562574795302413 -0.038283381024202146 0.917 0 43 68 255
-0.029171867951714465 -0.038283381024202146 0.917 0 43 67 255
-0.02775107448779801 -0.03824163251708742 0.916 0 45 70 255
-0.02636229240058203 -0.03824163251708742 0.916 0 46 71 255
-0.02497369941253856 -0.03824163251708742 0.916 0 44 69 255
-0.023585285539411572 -0.03824163251708742 0.916 0 45 70 255
-0.02219704080208641 -0.03824163251708742 0.916 0 47 72 255
-0.02080895522630325 -0.03824163251708742 0.916 0 49 72 255
-0.019421018842368284 -0.03824163251708742 0.916 0 49 73 255
-0.018052908608105902 -0.038283381024202146 0.917 0 50 75 255
-0.016681897796300135 -0.038325129531316865 0.918 1 53 77 255
-0.015324634050908626 -0.03840862654554632 0.92 2 54 77 255
-0.01393113613214301 -0.03840862654554632 0.92 0 52 75 255
-0.012551366025447378 -0.03845037505266104 0.921 4 58 80 255
-0.011156543321317386 -0.03845037505266104 0.921 3 60 81 255
-0.009772399690983737 -0.038492123559775764 0.922 4 61 82 255
-0.008376212570002881 -0.038492123559775764 0.922 5 64 87 255
-0.006980085462452723 -0.038492123559775764 0.922 8 67 90 255
-0.005584008363467289 -0.038492123559775764 0.922 3 62 84 255
-0.004187971269614472 -0.038492123559775764 0.922 4 63 84 255
-0.00279196417860748 -0.038492123559775764 0.922 5 64 85 255
-0.0013959770890204547 -0.038492123559775764 0.922 5 64 85 255
-4.5213959824520284e-17 -0.03853387206689049 0.923 0 60 81 255
0.0013974911639542261 -0.03853387206689049 0.923 0 57 78 255
0.0027949923393217144 -0.03853387206689049 0.923 0 57 78 255
0.004192513537802684 -0.03853387206689049 0.923 0 58 78 255
0.005590064771670526 -0.03853387206689049 0.923 0 59 80 255
0.0069876560540605 -0.03853387206689049 0.923 0 60 81 255
0.00838529739925442 -0.03853387206689049 0.923 1 62 82 255
0.00979359795495541 -0.038575620574005216 0.924 1 62 82 255
0.011192883853308556 -0.038575620574005216 0.924 0 60 81 255
0.012605877930009491 -0.038617369081119936 0.925 0 60 82 255
0.014021991367787333 -0.03865911758823466 0.926 0 62 83 255
0.015441234527382842 -0.03870086609534939 0.927 1 64 85 255
0.01684544581391083 -0.03870086609534939 0.927 0 64 85 255
0.01826946476371014 -0.03874261460246411 0.928 1 65 86 255
0.019675442669997475 -0.03874261460246411 0.928 2 66 87 255
0.021126996026705175 -0.03882611161669356 0.93 4 68 89 255
0.02256052946150913 -0.03886786012380828 0.931 4 68 89 255
0.023971507464183504 -0.03886786012380828 0.931 5 69 90 255
0.02540992123633827 -0.03890960863092301 0.932 5 68 89 255
0.02685154891893335 -0.03895135713803773 0.933 3 64 84 255
0.028326697211889802 -0.03903485415226718 0.935 6 67 87 255
0.029776301420724818 -0.039076602659381905 0.936 9 70 90 255
0.031229152217228218 -0.03911835116649663 0.937 10 71 91 255
0.03268526052778993 -0.03916009967361135 0.938 13 74 94 255
0.03414463732892771 -0.03920184818072607 0.939 14 75 95 255
0.03564517374724096 -0.03928534519495552 0.941 14 75 95 255
0.03711263826678674 -0.03932709370207024 0.942 16 77 97 255
0.03854248919983372 -0.03932709370207024 0.942 15 76 96 255
0.040057484518586484 -0.039410590716299695 0.944 16 77 97 255
0.04162279321159914 -0.03953583623764387 0.947 16 77 97 255
0.043106570721154334 -0.039577584744758594 0.948 17 78 98 255
0.044640686164912846 -0.03966108175898804 0.95 17 81 100 255
0.04622970936827105 -0.03978632728033221 0.953 21 85 104 255
0.04782818282266016 -0.039911572801676384 0.956 21 86 105 255
0.049384570571200714 -0.03999506981590584 0.958 20 85 105 255
0.050894324814213625 -0.04003681832302056 0.959 20 85 106 255
0.05251666899949967 -0.04016206384436473 0.962 20 85 105 255
0.05414851790867066 -0.04028730936570891 0.965 20 86 106 255
0.055674617420047194 -0.04032905787282363 0.966 22 88 108 255
0.05732247435156303 -0.0404543033941678 0.969 24 90 110 255
0.059161914960720534 -0.04070479443685615 0.975 25 93 112 255
0.0607712476942643 -0.0407882914510856 0.977 23 92 113 255
0.062387111326901425 -0.04087178846531504 0.979 23 93 116 255
0.064205267219678 -0.04108053100088867 0.984 29 101 124 255
0.06597235396003776 -0.041247525029347566 0.988 31 103 126 255
0.06768381509076357 -0.04137277055069174 0.991 28 101 121 255
0.06933509143437422 -0.041456267564921184 0.993 30 102 121 255
-0.10145859590171875 -0.042430712367381954 0.98 151 172 189 255
-0.09974634205048444 -0.04234411907683628 0.978 155 176 192 255
-0.09794051729932679 -0.042214229141017766 0.975 158 179 195 255
-0.09624354715042382 -0.042127635850472085 0.973 157 179 193 255
-0.09435867116023909 -0.04195444926938073 0.969 156 177 191 255
-0.09239093200079626 -0.041737966043016536 0.964 151 174 188 255
-0.09072213954436471 -0.04165137275247086 0.962 148 177 194 255
-0.089152917482178 -0.04160807610719802 0.961 35 76 96 255
-0.08749617466855067 -0.04152148281665234 0.959 22 74 93 255
-0.08584620188588538 -0.04143488952610667 0.957 18 71 90 255
-0.08402664293979503 -0.04126170294501531 0.953 14 68 85 255
-0.08239323002374113 -0.04117510965446963 0.951 11 65 80 255
-0.08059632761501674 -0.04100192307337828 0.947 8 63 77 255
-0.07897941099541793 -0.0409153297828326 0.945 7 61 75 255
-0.07736918874380044 -0.040828736492286924 0.943 3 57 70 255
-0.07560461438850058 -0.04065554991119557 0.939 1 55 68 255
-0.07385282243124251 -0.040482363330104215 0.935 2 56 70 255
-0.07226871223137298 -0.04039577003955854 0.933 4 58 73 255
-0.07076716811898096 -0.0403524733942857 0.932 1 55 70 255
-0.0691947879681425 -0.04026588010374002 0.93 0 53 70 255
-0.06755614039380996 -0.040135990167921506 0.927 1 54 72 255
-0.06599849035053422 -0.04004939687737583 0.925 0 52 71 255
-0.06458706906021776 -0.04004939687737583 0.925 0 51 69 255
-0.06310781548321458 -0.04000610023210299 0.924 0 49 68 255
-0.061698841152909904 -0.04000610023210299 0.924 0 48 68 255
-0.060225062646100495 -0.03996280358683015 0.923 0 49 69 255
-0.05875476674504923 -0.03991950694155731 0.922 1 50 70 255
-0.05735014367872239 -0.03991950694155731 0.922 2 51 71 255
-0.0558852550552038 -0.03987621029628447 0.921 1 50 69 255
-0.05442381465783083 -0.03983291365101164 0.92 0 47 67 255
-0.05302344516194979 -0.03983291365101164 0.92 0 49 68 255
-0.0515673450342678 -0.0397896170057388 0.919 0 48 70 255
-0.05011465919079085 -0.03974632036046596 0.918 0 48 69 255
-0.048718446485347434 -0.03974632036046596 0.918 0 49 70 255
-0.04732258432605673 -0.03974632036046596 0.918 0 49 70 255
-0.04592706258493945 -0.03974632036046596 0.918 0 46 67 255
-0.0444833614802777 -0.03970302371519312 0.917 0 46 68 255
-0.04309000969813175 -0.03970302371519312 0.917 0 49 71 255
-0.04169696767014622 -0.03970302371519312 0.917 0 48 70 255
-0.040304225316828396 -0.03970302371519312 0.917 0 47 69 255
-0.03891177256731344 -0.03970302371519312 0.917 0 49 72 255
-0.03751959935907389 -0.03970302371519312 0.917 0 47 71 255
-0.036127695637625835 -0.03970302371519312 0.917 0 47 72 255
-0.034736051356238085 -0.03970302371519312 0.917 0 48 73 255
-0.03334465647564089 -0.03970302371519312 0.917 1 50 75 255
-0.031953500963735025 -0.03970302371519312 0.917 1 52 77 255
-0.030529245924206118 -0.039659727069920284 0.916 2 53 78 255
-0.029140055663871813 -0.039659727069920284 0.916 1 52 77 255
-0.027720778554951073 -0.03961643042464744 0.915 2 53 78 255
-0.02636229240058203 -0.039659727069920284 0.916 0 51 76 255
-0.02497369941253856 -0.039659727069920284 0.916 0 51 75 255
-0.023585285539411572 -0.039659727069920284 0.916 1 53 78 255
-0.02219704080208641 -0.039659727069920284 0.916 3 56 81 255
-0.02080895522630325 -0.039659727069920284 0.916 3 56 81 255
-0.01944222082800406 -0.03970302371519312 0.917 2 55 79 255
-0.018052908608105902 -0.03970302371519312 0.917 2 55 79 255
-0.016681897796300135 -0.03974632036046596 0.918 1 55 79 255
-0.015307976839983726 -0.0397896170057388 0.919 3 57 80 255
-0.013915993592868943 -0.0397896170057388 0.919 3 59 80 255
-0.012537738049306827 -0.03983291365101164 0.92 4 61 82 255
-0.011156543321317386 -0.03987621029628447 0.921 6 63 84 255
-0.009761800558997853 -0.03987621029628447 0.921 6 64 85 255
-0.008367127740751252 -0.03987621029628447 0.921 6 65 87 255
-0.006972514870844857 -0.03987621029628447 0.921 8 67 90 255
-0.005577951955263963 -0.03987621029628447 0.921 6 65 88 255
-0.00418342900142617 -0.03987621029628447 0.921 4 63 86 255
-0.002788936017893155 -0.03987621029628447 0.921 5 65 87 255
-0.0013959770890204547 -0.03991950694155731 0.922 5 66 88 255
-4.5213959824520284e-17 -0.03996280358683015 0.923 3 64 86 255
0.0013974911639542261 -0.03996280358683015 0.923 1 62 84 255
0.0027949923393217144 -0.03996280358683015 0.923 0 61 82 255
0.004192513537802684 -0.03996280358683015 0.923 0 60 81 255
0.005596121179873853 -0.04000610023210299 0.924 1 62 82 255
0.006995226645668365 -0.04000610023210299 0.924 2 63 83 255
0.008394382228506051 -0.04000610023210299 0.924 1 61 81 255
0.00979359795495541 -0.04000610023210299 0.924 0 60 82 255
0.01120499736397231 -0.04004939687737583 0.925 0 61 83 255
0.012605877930009491 -0.04004939687737583 0.925 0 63 83 255
0.014006848828513264 -0.04004939687737583 0.925 0 62 83 255
0.015424577316457938 -0.040092693522648666 0.926 0 62 83 255
0.01684544581391083 -0.040135990167921506 0.927 0 64 85 255
0.01826946476371014 -0.04017928681319435 0.928 3 67 88 255
0.019675442669997475 -0.04017928681319435 0.928 2 66 87 255
0.021104278826676464 -0.04022258345846719 0.929 5 69 90 255
0.022536296884214272 -0.04026588010374002 0.93 9 71 93 255
0.023971507464183504 -0.04030917674901286 0.931 12 73 95 255
0.02540992123633827 -0.0403524733942857 0.932 11 72 94 255
0.02685154891893335 -0.04039577003955854 0.933 3 64 84 255
0.02829640127904286 -0.04043906668483138 0.934 6 66 87 255
0.029776301420724818 -0.040525659975377055 0.936 9 69 90 255
0.031195823346131926 -0.040525659975377055 0.936 11 70 91 255
0.03268526052778993 -0.04061225326592273 0.938 11 72 92 255
0.0342173628610447 -0.04074214320174124 0.941 11 72 92 255
0.03564517374724096 -0.04074214320174124 0.941 13 74 94 255
0.03711263826678674 -0.040785439847014084 0.942 14 76 96 255
0.03858340479346411 -0.040828736492286924 0.943 19 80 100 255
0.040099918294559556 -0.0409153297828326 0.945 18 80 100 255
0.04162279321159914 -0.04100192307337828 0.947 16 77 97 255
0.04315204178731588 -0.04108851636392395 0.949 14 76 97 255
0.04468767636087591 -0.04117510965446963 0.951 15 77 99 255
0.0463267286953818 -0.04134829623556099 0.955 15 79 100 255
0.047928241782540196 -0.0414781861713795 0.958 18 82 103 255
0.04943612022732932 -0.04152148281665234 0.959 18 82 103 255
0.05105353542364286 -0.04165137275247086 0.962 19 83 104 255
0.052571260131515786 -0.041694669397743696 0.963 19 83 103 255
0.05420463036246203 -0.04182455933356222 0.966 19 83 104 255
0.05573225159957105 -0.04186785597883505 0.967 27 91 112 255
0.05749994331240378 -0.042084339205199245 0.972 28 94 114 255
0.05922259384785973 -0.0422575257862906 0.976 26 94 114 255
0.06083344958545597 -0.04234411907683628 0.978 25 94 113 255
0.06245083667044269 -0.042430712367381954 0.98 22 93 113 255
0.064205267219678 -0.042603898948473315 0.984 31 102 124 255
0.06603912759764913 -0.0428203821748375 0.989 32 104 125 255
0.06775211359236878 -0.042950272110656024 0.992 31 103 123 255
0.0694049152928177 -0.0430368654012017 0.994 32 103 122 255
-0.09954236180089245 -0.04376871083656708 0.976 152 172 189 255
-0.09773961367409739 -0.04363417586473337 0.973 156 176 192 255
-0.09604571868762747 -0.0435444858835109 0.971 155 175 190 255
-0.09406653905138386 -0.04332026093045471 0.966 151 170 186 255
-0.09219924956925935 -0.04314088096800976 0.962 150 172 186 255
-0.09043922226927835 -0.04300634599617605 0.959 140 167 185 255
-0.08887460452437723 -0.04296150100556482 0.958 29 70 90 255
-0.08713122712040239 -0.04282696603373111 0.955 23 74 92 255
-0.08557709153514592 -0.04278212104311987 0.954 19 72 90 255
-0.08376213094732977 -0.042602741080674925 0.95 18 72 87 255
-0.08213331447161576 -0.04251305109945245 0.948 13 67 82 255
-0.08034100661940424 -0.042333671137007506 0.944 10 66 80 255
-0.0787286827065436 -0.04224398115578503 0.942 7 63 77 255
-0.07712305134588804 -0.042154291174562555 0.94 5 61 74 255
-0.07536306609971943 -0.04197491121211761 0.936 4 60 73 255
-0.07377383545538022 -0.04188522123089514 0.934 4 60 74 255
-0.07211379537771516 -0.04175068625906143 0.931 4 60 74 255
-0.07061530724318915 -0.04170584126845019 0.93 3 58 73 255
-0.06904598197251209 -0.04161615128722772 0.928 0 56 70 255
-0.06748326429845525 -0.04152646130600524 0.926 3 59 73 255
-0.06599849035053422 -0.04148161631539401 0.925 1 55 70 255
-0.06451724520177429 -0.041436771324782774 0.924 0 54 69 255
-0.06310781548321458 -0.041436771324782774 0.924 0 51 67 255
-0.06163206751529853 -0.04139192633417153 0.923 0 48 65 255
-0.06015981339079594 -0.0413470813435603 0.922 0 50 68 255
-0.058691041401507965 -0.04130223635294906 0.921 0 52 70 255
-0.05722573989633905 -0.041257391362337824 0.92 0 52 71 255
-0.05582457616806459 -0.041257391362337824 0.92 0 52 70 255
-0.05436465833755058 -0.04121254637172659 0.919 1 53 72 255
-0.052965810982425934 -0.04121254637172659 0.919 1 53 73 255
-0.051511232580476435 -0.04116770138111535 0.918 0 52 72 255
-0.050060068058774734 -0.041122856390504114 0.917 0 50 72 255
-0.04866537628220435 -0.041122856390504114 0.917 0 50 73 255
-0.04727103466992813 -0.041122856390504114 0.917 0 47 70 255
-0.04587703310499943 -0.041122856390504114 0.917 0 47 70 255
-0.044434851816722326 -0.04107801139989288 0.916 0 49 72 255
-0.04304301950216868 -0.04107801139989288 0.916 0 50 73 255
-0.04165149660398466 -0.04107801139989288 0.916 1 50 74 255
-0.040260273053669374 -0.04107801139989288 0.916 1 49 73 255
-0.03886933879134036 -0.04107801139989288 0.916 0 48 72 255
-0.03747868376544349 -0.04107801139989288 0.916 0 50 74 255
-0.03604890022729295 -0.04103316640928164 0.915 1 53 78 255
-0.03466029115698784 -0.04103316640928164 0.915 3 54 79 255
-0.033271930943523896 -0.04103316640928164 0.915 4 58 82 255
-0.03188380957668217 -0.04103316640928164 0.915 7 60 85 255
-0.030495917053109823 -0.04103316640928164 0.915 3 57 81 255
-0.029108243376029155 -0.04103316640928164 0.915 1 55 79 255
-0.02769048262210413 -0.040988321418670405 0.914 2 56 80 255
-0.026304732810187744 -0.040988321418670405 0.914 1 55 79 255
-0.024946435548551076 -0.04103316640928164 0.915 0 54 78 255
-0.02355953741109344 -0.04103316640928164 0.915 0 55 78 255
-0.022172808224791552 -0.04103316640928164 0.915 1 58 81 255
-0.02080895522630325 -0.04107801139989288 0.916 5 62 85 255
-0.01944222082800406 -0.041122856390504114 0.917 2 59 82 255
-0.018052908608105902 -0.041122856390504114 0.917 3 60 83 255
-0.016681897796300135 -0.04116770138111535 0.918 4 61 84 255
-0.015291319629058825 -0.04116770138111535 0.918 4 61 84 255
-0.013915993592868943 -0.04121254637172659 0.919 4 61 82 255
-0.012524110073166277 -0.04121254637172659 0.919 3 62 83 255
-0.011132316299989878 -0.04121254637172659 0.919 7 65 87 255
-0.009740602295026088 -0.04121254637172659 0.919 7 66 87 255
-0.008348958082247991 -0.04121254637172659 0.919 4 63 84 255
-0.006957373687629125 -0.04121254637172659 0.919 5 64 87 255
-0.005565839138857309 -0.04121254637172659 0.919 7 66 89 255
-0.0041743444650495665 -0.04121254637172659 0.919 6 65 88 255
-0.0027859078571788303 -0.041257391362337824 0.92 5 66 88 255
-0.0013929489391527313 -0.041257391362337824 0.92 7 68 90 255
-4.51159880805885e-17 -0.04130223635294906 0.921 4 65 87 255
0.001394463014086503 -0.04130223635294906 0.921 4 65 87 255
0.0027949923393217144 -0.04139192633417153 0.923 0 63 84 255
0.004187971269614382 -0.0413470813435603 0.922 0 62 83 255
0.005590064771670526 -0.04139192633417153 0.923 0 61 82 255
0.0069876560540605 -0.04139192633417153 0.923 0 61 82 255
0.00838529739925442 -0.04139192633417153 0.923 0 60 81 255
0.009782998822969527 -0.04139192633417153 0.923 0 61 82 255
0.011192883853308556 -0.041436771324782774 0.924 0 62 83 255
0.01259224995386894 -0.041436771324782774 0.924 0 63 84 255
0.014006848828513264 -0.04148161631539401 0.925 0 64 85 255
0.015424577316457938 -0.04152646130600524 0.926 0 63 84 255
0.01684544581391083 -0.041571306296616484 0.927 0 63 83 255
0.018249777840473384 -0.041571306296616484 0.927 6 70 91 255
0.019675442669997475 -0.04161615128722772 0.928 4 68 90 255
0.021081561626647746 -0.04161615128722772 0.928 3 67 88 255
0.022536296884214272 -0.04170584126845019 0.93 8 69 91 255
0.02394575933586537 -0.04170584126845019 0.93 14 72 94 255
0.02538265737235078 -0.04175068625906143 0.931 13 72 93 255
0.02682276912373621 -0.04179553124967267 0.932 5 64 85 255
0.02829640127904286 -0.04188522123089514 0.934 9 67 89 255
0.02974448913288216 -0.04193006622150638 0.935 11 70 91 255
0.031195823346131926 -0.04197491121211761 0.936 13 72 93 255
0.03268526052778993 -0.04206460119334008 0.938 12 71 92 255
0.0342173628610447 -0.04219913616517379 0.941 9 70 90 255
0.03568305384686608 -0.04224398115578503 0.942 10 71 93 255
0.03711263826678674 -0.04224398115578503 0.942 12 73 95 255
0.03858340479346411 -0.042288826146396265 0.943 16 77 99 255
0.040099918294559556 -0.04237851612761874 0.945 17 78 100 255
0.04162279321159914 -0.042468206108841215 0.947 16 77 99 255
0.04315204178731588 -0.042557896090063684 0.949 16 77 99 255
0.04468767636087591 -0.04264758607128616 0.951 17 81 102 255
0.0463267286953818 -0.04282696603373111 0.955 17 81 102 255
0.047928241782540196 -0.04296150100556482 0.958 19 83 104 255
0.04948766988345792 -0.043051190986787294 0.96 14 78 99 255
0.05110660562678594 -0.043185725958621 0.963 15 79 100 255
0.05268044239554801 -0.04327541593984348 0.965 14 78 99 255
0.05420463036246203 -0.04332026093045471 0.966 15 79 100 255
0.05578988577909491 -0.04340995091167719 0.968 25 91 111 255
0.05749994331240378 -0.04358933087412213 0.972 26 92 112 255
0.05922259384785973 -0.04376871083656708 0.976 25 94 112 255
0.06083344958545597 -0.04385840081778956 0.978 26 96 115 255
0.06245083667044269 -0.043948090799012025 0.98 28 98 118 255
0.064205267219678 -0.044127470761456976 0.984 31 101 120 255
0.06603912759764913 -0.04435169571451316 0.989 31 101 120 255
0.06775211359236878 -0.04448623068634687 0.992 33 102 121 255
0.06947473915126116 -0.04462076565818058 0.995 34 103 122 255
-0.09923639142650446 -0.04514092470285029 0.973 153 172 190 255
-0.09763916186148269 -0.045094531152282104 0.972 153 173 188 255
-0.09584789022483113 -0.04495535050057753 0.969 152 173 187 255
-0.09396916168176545 -0.04476977629830476 0.965 148 170 184 255
-0.09200756713772242 -0.044537808545463804 0.96 152 173 190 255
-0.09034491651091622 -0.04444502144432742 0.958 122 148 169 255
-0.08868906255251006 -0.044352234343191035 0.956 29 72 93 255
-0.08703999023336532 -0.044259447242054654 0.954 27 76 96 255
-0.08539768463465294 -0.044166660140918274 0.952 18 71 89 255
-0.08358578961901961 -0.043981085938645505 0.948 15 68 86 255
-0.08196003743686552 -0.043888298837509124 0.946 13 69 83 255
-0.08017079262232923 -0.043702724635236355 0.942 11 67 81 255
-0.0785615305139607 -0.043609937534099974 0.94 10 69 82 255
-0.07695895974727977 -0.04351715043296359 0.938 9 68 81 255
-0.07520203390719866 -0.04333157623069083 0.934 6 65 78 255
-0.07369484847951792 -0.04328518268012264 0.933 5 63 77 255
-0.07203633695088625 -0.04314600202841806 0.93 3 62 75 255
-0.07053937680529325 -0.043099608477849875 0.929 3 62 75 255
-0.06897157897469688 -0.04300682137671349 0.927 1 60 73 255
-0.06741038820310055 -0.042914034275577106 0.925 3 59 73 255
-0.06592714063123635 -0.04286764072500891 0.924 0 56 70 255
-0.06444742134333081 -0.042821247174440726 0.923 0 55 72 255
-0.06303951698160935 -0.042821247174440726 0.923 0 54 71 255
-0.06156529387768716 -0.04277485362387253 0.922 0 51 68 255
-0.06009456413549139 -0.04272846007330434 0.921 0 51 68 255
-0.0586273160579667 -0.04268206652273615 0.92 0 54 73 255
-0.05722573989633905 -0.04268206652273615 0.92 0 53 73 255
-0.055763897280925394 -0.04263567297216796 0.919 0 53 72 255
-0.05430550201727033 -0.04258927942159977 0.918 0 54 73 255
-0.05290817680290208 -0.04258927942159977 0.918 0 54 76 255
-0.051455120126685065 -0.042542885871031576 0.917 0 54 76 255
-0.050060068058774734 -0.042542885871031576 0.917 0 52 74 255
-0.04866537628220435 -0.042542885871031576 0.917 0 52 74 255
-0.04721948501379952 -0.04249649232046338 0.916 0 51 73 255
-0.045827003625059405 -0.04249649232046338 0.916 0 51 74 255
-0.044434851816722326 -0.04249649232046338 0.916 0 52 74 255
-0.04304301950216868 -0.04249649232046338 0.916 0 50 72 255
-0.04165149660398466 -0.04249649232046338 0.916 0 47 70 255
-0.040216320790510345 -0.042450098769895195 0.915 0 49 72 255
-0.038826905015367286 -0.042450098769895195 0.915 0 50 74 255
-0.037437768171813095 -0.042450098769895195 0.915 0 51 76 255
-0.03604890022729295 -0.042450098769895195 0.915 1 53 78 255
-0.03466029115698784 -0.042450098769895195 0.915 4 58 82 255
-0.033235568177465404 -0.042403705219327 0.914 9 63 87 255
-0.031848963883155744 -0.042403705219327 0.914 10 64 88 255
-0.030462588182013528 -0.042403705219327 0.914 7 61 85 255
-0.029044618800343848 -0.04235731166875881 0.913 6 60 84 255
-0.02766018668925719 -0.04235731166875881 0.913 7 61 85 255
-0.0262759530149906 -0.04235731166875881 0.913 7 61 85 255
-0.02491917168456359 -0.042403705219327 0.914 5 61 84 255
-0.02355953741109344 -0.042450098769895195 0.915 2 58 81 255
-0.022172808224791552 -0.042450098769895195 0.915 1 58 81 255
-0.02080895522630325 -0.04249649232046338 0.916 3 60 83 255
-0.019421018842368284 -0.04249649232046338 0.916 3 60 83 255
-0.018052908608105902 -0.042542885871031576 0.917 4 61 84 255
-0.016663725794343383 -0.042542885871031576 0.917 5 62 85 255
-0.015291319629058825 -0.04258927942159977 0.918 5 62 85 255
-0.013900851053594874 -0.04258927942159977 0.918 5 62 83 255
-0.012510482097025724 -0.04258927942159977 0.918 7 66 87 255
-0.011132316299989878 -0.04263567297216796 0.919 8 67 88 255
-0.009740602295026088 -0.04263567297216796 0.919 8 67 88 255
-0.008348958082247991 -0.04263567297216796 0.919 5 65 86 255
-0.006957373687629125 -0.04263567297216796 0.919 5 64 87 255
-0.005565839138857309 -0.04263567297216796 0.919 8 67 90 255
-0.0041743444650495665 -0.04263567297216796 0.919 8 67 90 255
-0.0027828796964645052 -0.04263567297216796 0.919 8 67 92 255
-0.0013929489391527313 -0.04268206652273615 0.92 7 67 91 255
-4.5067002208622597e-17 -0.04268206652273615 0.92 5 66 90 255
0.001394463014086503 -0.04272846007330434 0.921 6 67 91 255
0.0027889360178930647 -0.04272846007330434 0.921 4 66 90 255
0.0041834290014260795 -0.04272846007330434 0.921 1 65 87 255
0.005584008363467199 -0.04277485362387253 0.922 0 63 84 255
0.006980085462452633 -0.04277485362387253 0.922 0 63 84 255
0.00837621257000279 -0.04277485362387253 0.922 0 63 84 255
0.009782998822969527 -0.042821247174440726 0.923 0 64 85 255
0.011180770342644801 -0.042821247174440726 0.923 0 64 85 255
0.01259224995386894 -0.04286764072500891 0.924 2 66 88 255
0.013991706289239195 -0.04286764072500891 0.924 4 68 89 255
0.015424577316457938 -0.0429604278261453 0.926 4 68 89 255
0.01684544581391083 -0.04300682137671349 0.927 5 69 90 255
0.018249777840473384 -0.04300682137671349 0.927 7 71 92 255
0.0196542406843617 -0.04300682137671349 0.927 6 70 91 255
0.021081561626647746 -0.04305321492728168 0.928 6 67 87 255
0.02251206430691942 -0.043099608477849875 0.929 6 67 87 255
0.02394575933586537 -0.04314600202841806 0.93 7 66 87 255
0.025355393508363296 -0.04314600202841806 0.93 4 63 84 255
0.026793989328539065 -0.043192395578986256 0.931 5 62 83 255
0.02826610534619592 -0.04328518268012264 0.933 9 67 88 255
0.029712676845039504 -0.04333157623069083 0.934 10 69 90 255
0.031195823346131926 -0.04342436333182721 0.936 11 70 91 255
0.03268526052778993 -0.04351715043296359 0.938 11 70 91 255
0.0342173628610447 -0.04365633108466817 0.941 10 69 90 255
0.03568305384686608 -0.043702724635236355 0.942 10 71 93 255
0.037152035971953185 -0.04374911818580455 0.943 12 73 95 255
0.03858340479346411 -0.04374911818580455 0.943 13 76 97 255
0.040099918294559556 -0.04384190528694093 0.945 12 76 97 255
0.04162279321159914 -0.04393469238807732 0.947 11 75 96 255
0.04315204178731588 -0.0440274794892137 0.949 11 75 96 255
0.04468767636087591 -0.04412026659035008 0.951 12 76 97 255
0.0463267286953818 -0.04430584079262285 0.955 13 77 99 255
0.047928241782540196 -0.04444502144432742 0.958 17 81 102 255
0.04948766988345792 -0.044537808545463804 0.96 15 79 100 255
0.05110660562678594 -0.04467698919716838 0.963 14 78 99 255
0.05268044239554801 -0.04476977629830476 0.965 16 80 101 255
0.0542607428162534 -0.04486256339944115 0.967 14 80 100 255
0.055847519958618766 -0.04495535050057753 0.969 20 86 106 255
0.05755909963268403 -0.04514092470285029 0.973 25 91 111 255
0.05928327273499893 -0.04532649890512306 0.977 26 92 112 255
0.06083344958545597 -0.045372892455691254 0.978 27 96 115 255
0.06251456201398396 -0.04551207310739583 0.981 29 98 117 255
0.06427051647498254 -0.04569764730966859 0.985 30 99 118 255
0.0661059012352605 -0.04592961506250955 0.99 29 98 117 255
0.06782041209397399 -0.04606879571421412 0.993 32 101 120 255
-0.09903241117691247 -0.04655200494108938 0.971 125 145 160 255
-0.09733780642363861 -0.04645612027591721 0.969 155 176 190 255
-0.09565006176203478 -0.04636023561074504 0.967 149 170 185 255
-0.09377440694252864 -0.046168466280400694 0.963 143 165 179 255
-0.09191172592195396 -0.04597669695005635 0.959 148 170 188 255
-0.09025061075255408 -0.04588081228488418 0.957 87 118 138 255
-0.08859629156657647 -0.04578492761971201 0.955 33 78 99 255
-0.08685751645929118 -0.04564110062195375 0.952 22 74 94 255
-0.08521827773415998 -0.04554521595678158 0.95 16 69 87 255
-0.08340944829070944 -0.045353446626437234 0.946 14 70 86 255
-0.08170012188474016 -0.045209619628678976 0.943 10 69 85 255
-0.08000057862525423 -0.04506579263092072 0.94 11 70 86 255
-0.0783943783213778 -0.04496990796574855 0.938 10 69 85 255
-0.07679486814867151 -0.044874023300576375 0.936 9 68 82 255
-0.07512151781093829 -0.04473019630281812 0.933 8 68 82 255
-0.07361586150365562 -0.04468225397023203 0.932 6 65 81 255
-0.07195887852405734 -0.044538426972473774 0.929 4 63 79 255
-0.07046344636739735 -0.04449048463988769 0.928 4 63 79 255
-0.06897157897469688 -0.0444425423073016 0.927 1 60 76 255
-0.06741038820310055 -0.04434665764212943 0.925 0 58 74 255
-0.06592714063123635 -0.044298715309543345 0.924 0 56 73 255
-0.06437759748488733 -0.04420283064437117 0.922 0 56 73 255
-0.06297121848000414 -0.04420283064437117 0.922 0 57 75 255
-0.06149852024007577 -0.04415488831178509 0.921 1 59 77 255
-0.06002931488018684 -0.044106945979199 0.92 0 57 75 255
-0.05856359071442542 -0.044059003646612915 0.919 0 56 74 255
-0.057163538005147375 -0.044059003646612915 0.919 0 54 73 255
-0.0557032183937862 -0.04401106131402683 0.918 0 54 75 255
-0.05424634569699008 -0.043963118981440744 0.917 0 55 75 255
-0.05285054262337822 -0.043963118981440744 0.917 0 55 76 255
-0.05139900767289368 -0.04391517664885466 0.916 0 57 78 255
-0.05000547692675862 -0.04391517664885466 0.916 0 55 77 255
-0.04861230607906128 -0.04391517664885466 0.916 0 56 79 255
-0.04721948501379952 -0.04391517664885466 0.916 0 56 79 255
-0.045827003625059405 -0.04391517664885466 0.916 0 54 76 255
-0.044434851816722326 -0.04391517664885466 0.916 0 53 76 255
-0.04299602930620562 -0.04386723431626857 0.915 0 52 75 255
-0.04160602553782311 -0.04386723431626857 0.915 0 51 74 255
-0.040216320790510345 -0.04386723431626857 0.915 0 52 76 255
-0.038826905015367286 -0.04386723431626857 0.915 0 53 77 255
-0.0373968525781827 -0.043819291983682486 0.914 2 56 80 255
-0.036009502522126514 -0.043819291983682486 0.914 6 60 84 255
-0.03462241105736272 -0.043819291983682486 0.914 5 59 83 255
-0.03319920541140691 -0.0437713496510964 0.913 7 61 85 255
-0.03181411818962931 -0.0437713496510964 0.913 10 64 88 255
-0.030429259310917237 -0.0437713496510964 0.913 10 64 88 255
-0.029044618800343848 -0.0437713496510964 0.913 10 64 88 255
-0.027629890756410248 -0.043723407318510314 0.912 10 64 88 255
-0.02624717321979346 -0.043723407318510314 0.912 9 63 87 255
-0.024891907820576098 -0.0437713496510964 0.913 10 64 88 255
-0.023533789282775303 -0.043819291983682486 0.914 8 64 88 255
-0.022172808224791552 -0.04386723431626857 0.915 7 64 87 255
-0.02080895522630325 -0.04391517664885466 0.916 4 61 84 255
-0.019421018842368284 -0.04391517664885466 0.916 5 62 85 255
-0.018033221684869146 -0.04391517664885466 0.916 6 63 86 255
-0.016663725794343383 -0.043963118981440744 0.917 6 63 86 255
-0.015291319629058825 -0.04401106131402683 0.918 8 65 87 255
-0.013900851053594874 -0.04401106131402683 0.918 8 65 88 255
-0.012510482097025724 -0.04401106131402683 0.918 10 68 90 255
-0.011120202789326124 -0.04401106131402683 0.918 11 69 91 255
-0.009730003163040206 -0.04401106131402683 0.918 9 67 89 255
-0.008339873252996361 -0.04401106131402683 0.918 7 65 88 255
-0.006949803096021258 -0.04401106131402683 0.918 11 68 91 255
-0.005559782730653982 -0.04401106131402683 0.918 11 68 91 255
-0.004169802196861264 -0.04401106131402683 0.918 9 67 90 255
-0.0027828796964645052 -0.044059003646612915 0.919 6 65 90 255
-0.0013914348642188696 -0.044059003646612915 0.919 4 63 88 255
-4.5067002208622597e-17 -0.044106945979199 0.92 4 63 88 255
0.0013929489391526415 -0.044106945979199 0.92 6 67 91 255
0.0027889360178930647 -0.04415488831178509 0.921 7 68 92 255
0.004178886733237778 -0.044106945979199 0.92 5 66 90 255
0.005577951955263873 -0.04415488831178509 0.921 2 65 87 255
0.006972514870844767 -0.04415488831178509 0.921 2 65 88 255
0.00836712774075116 -0.04415488831178509 0.921 1 64 86 255
0.009772399690983646 -0.04420283064437117 0.922 1 64 86 255
0.011180770342644801 -0.04425077297695726 0.923 2 65 88 255
0.012578621977728391 -0.04425077297695726 0.923 2 65 87 255
0.013991706289239195 -0.044298715309543345 0.924 4 67 89 255
0.01540792010553304 -0.04434665764212943 0.925 6 67 89 255
0.016827273811954077 -0.044394599974715516 0.926 6 67 89 255
0.018249777840473384 -0.0444425423073016 0.927 5 66 88 255
0.0196542406843617 -0.0444425423073016 0.927 5 67 87 255
0.021081561626647746 -0.04449048463988769 0.928 4 65 85 255
0.02251206430691942 -0.044538426972473774 0.929 3 62 83 255
0.023920011207547234 -0.044538426972473774 0.929 3 62 83 255
0.025355393508363296 -0.04458636930505986 0.93 3 62 83 255
0.026793989328539065 -0.044634311637645946 0.931 2 59 80 255
0.02826610534619592 -0.04473019630281812 0.933 5 64 85 255
0.029712676845039504 -0.044778138635404204 0.934 8 68 88 255
0.03116249447503563 -0.04482608096799029 0.935 9 68 89 255
0.03268526052778993 -0.04496990796574855 0.938 9 68 89 255
0.0342173628610447 -0.045113734963506805 0.941 9 70 90 255
0.03568305384686608 -0.04516167729609289 0.942 11 72 93 255
0.037152035971953185 -0.045209619628678976 0.943 13 74 95 255
0.038624320387094506 -0.04525756196126506 0.944 12 76 97 255
0.040142352070532634 -0.045353446626437234 0.946 11 75 96 255
0.04166674547475816 -0.045449331291609406 0.948 10 74 95 255
0.04315204178731588 -0.04549727362419549 0.949 10 74 95 255
0.04468767636087591 -0.04559315828936766 0.951 12 76 97 255
0.046278219031826426 -0.04573698528712592 0.954 12 76 97 255
0.047928241782540196 -0.045928754617470265 0.958 12 77 97 255
0.04943612022732932 -0.04597669695005635 0.959 14 78 99 255
0.05105353542364286 -0.04612052394781461 0.962 16 81 102 255
0.052735033527564125 -0.04631229327815895 0.966 18 84 104 255
0.0542607428162534 -0.04636023561074504 0.967 18 84 104 255
0.055847519958618766 -0.04645612027591721 0.969 18 84 104 255
0.05755909963268403 -0.04664788960626155 0.973 21 87 107 255
0.05934395162213814 -0.04688760126919198 0.978 24 90 110 255
0.060895651476647654 -0.04693554360177807 0.979 27 93 113 255
0.06257828735752523 -0.047079370599536326 0.982 25 94 113 255
0.06433576573028708 -0.04727113992988067 0.986 25 94 113 255
0.0661059012352605 -0.04746290926022501 0.99 26 95 114 255
0.0678887105955792 -0.047654678590569356 0.994 29 98 117 255
-0.0984204704281365 -0.04775914706765717 0.965 124 144 159 255
-0.09683554736056516 -0.04770965572354561 0.964 152 173 187 255
-0.09525440483644208 -0.047660164379434045 0.963 144 165 179 255
-0.0934822748336734 -0.04751169034709936 0.96 141 163 177 255
-0.09152836105888013 -0.04726423362654155 0.955 144 172 185 255
-0.08996769347746772 -0.047214742282429986 0.954 61 100 117 255
-0.08831797860877572 -0.047115759594206864 0.952 29 79 101 255
-0.08649256891114289 -0.04691779421776062 0.948 20 73 95 255
-0.08485946393317405 -0.04681881152953749 0.946 17 72 91 255
-0.0831449362982442 -0.046670337497202806 0.943 12 70 88 255
-0.08135356781523967 -0.04647237212075656 0.939 9 69 87 255
-0.07966015063110421 -0.04632389808842188 0.936 8 68 86 255
-0.078060073936212 -0.046224915400198754 0.934 8 68 86 255
-0.07654873075075909 -0.0461754240560872 0.933 7 67 85 255
-0.07504100171467791 -0.04612593271197563 0.932 6 66 83 255
-0.07337890057606876 -0.045977458679640947 0.929 3 63 80 255
-0.07180396167039953 -0.045878475991417825 0.927 1 61 78 255
-0.07031158549160553 -0.04582898464730626 0.926 2 62 80 255
-0.06882277297906647 -0.0457794933031947 0.925 0 60 78 255
-0.06726463601239113 -0.045680510614971574 0.923 0 60 78 255
-0.06571309147334273 -0.04558152792674845 0.921 0 59 77 255
-0.06423794976800037 -0.04553203658263689 0.92 0 59 77 255
-0.06283462147679374 -0.04553203658263689 0.92 1 60 78 255
-0.06136497296485303 -0.04548254523852533 0.919 2 61 79 255
-0.05989881636957774 -0.045433053894413766 0.918 2 61 79 255
-0.05843614002734289 -0.0453835625503022 0.917 2 62 80 255
-0.05703913422276402 -0.0453835625503022 0.917 0 58 79 255
-0.055581860619507796 -0.045334071206190645 0.916 0 56 77 255
-0.054128033056429575 -0.04528457986207908 0.915 0 55 76 255
-0.0527352742643305 -0.04528457986207908 0.915 0 57 79 255
-0.05134289521910232 -0.04528457986207908 0.915 2 61 82 255
-0.04995088579474251 -0.04528457986207908 0.915 2 63 83 255
-0.0485592358759182 -0.04528457986207908 0.915 5 65 87 255
-0.04716793535767092 -0.04528457986207908 0.915 2 61 84 255
-0.04577697414511939 -0.04528457986207908 0.915 0 54 77 255
-0.04438634215316695 -0.04528457986207908 0.915 0 53 76 255
-0.04299602930620562 -0.04528457986207908 0.915 0 53 76 255
-0.04156055447166155 -0.04523508851796752 0.914 0 54 77 255
-0.040172368527351315 -0.04523508851796752 0.914 1 58 81 255
-0.03874203746342112 -0.04518559717385596 0.913 1 56 79 255
-0.0373559369845523 -0.04518559717385596 0.913 1 55 79 255
-0.03597010481696007 -0.04518559717385596 0.913 5 59 83 255
-0.03458453095773759 -0.04518559717385596 0.913 4 58 82 255
-0.033162842645348405 -0.045136105829744394 0.912 3 57 81 255
-0.031779272496102885 -0.045136105829744394 0.912 6 60 84 255
-0.03039593043982094 -0.045136105829744394 0.912 9 63 87 255
-0.02901280651250119 -0.045136105829744394 0.912 10 64 88 255
-0.027599594823563306 -0.04508661448563284 0.911 8 62 86 255
-0.026218393424596316 -0.04508661448563284 0.911 10 64 88 255
-0.024864643956588613 -0.045136105829744394 0.912 9 66 89 255
-0.023508041154457166 -0.04518559717385596 0.913 8 65 88 255
-0.0221485756474967 -0.04523508851796752 0.914 8 65 88 255
-0.020786238026274537 -0.04528457986207908 0.915 2 60 84 255
-0.019421018842368284 -0.045334071206190645 0.916 4 62 85 255
-0.018033221684869146 -0.045334071206190645 0.916 7 65 88 255
-0.01664555379238663 -0.045334071206190645 0.916 7 66 89 255
-0.015274662418133925 -0.0453835625503022 0.917 7 65 88 255
-0.013885708514320805 -0.0453835625503022 0.917 8 66 89 255
-0.012496854120885175 -0.0453835625503022 0.917 7 64 87 255
-0.01110808927866237 -0.0453835625503022 0.917 7 64 87 255
-0.009719404031054322 -0.0453835625503022 0.917 8 65 88 255
-0.0083217035944931 -0.045334071206190645 0.916 9 66 89 255
-0.006934661912805525 -0.045334071206190645 0.916 11 68 91 255
-0.005553726322450655 -0.0453835625503022 0.917 10 67 90 255
-0.004165259928672962 -0.0453835625503022 0.917 9 66 90 255
-0.002776823375035856 -0.0453835625503022 0.917 5 64 89 255
-0.001389920789285008 -0.045433053894413766 0.918 7 66 91 255
-4.4969030464690814e-17 -0.045433053894413766 0.918 6 65 90 255
0.0013914348642187799 -0.04548254523852533 0.919 6 66 91 255
0.0027828796964644155 -0.04548254523852533 0.919 7 67 92 255
0.0041743444650494755 -0.04548254523852533 0.919 5 66 90 255
0.0055658391388572195 -0.04548254523852533 0.919 2 63 87 255
0.006957373687629035 -0.04548254523852533 0.919 6 67 91 255
0.00835804291149953 -0.04553203658263689 0.92 7 68 92 255
0.00975120142701188 -0.04553203658263689 0.92 6 67 91 255
0.011156543321317295 -0.04558152792674845 0.921 6 67 91 255
0.012578621977728391 -0.045680510614971574 0.923 6 67 89 255
0.013976563749965127 -0.045680510614971574 0.923 7 67 89 255
0.01540792010553304 -0.0457794933031947 0.925 6 67 89 255
0.016827273811954077 -0.04582898464730626 0.926 6 67 87 255
0.018230090917236624 -0.04582898464730626 0.926 5 66 86 255
0.0196542406843617 -0.045878475991417825 0.927 3 64 84 255
0.021058844426619032 -0.045878475991417825 0.927 0 59 80 255
0.022487831729624565 -0.04592796733552939 0.928 1 60 81 255
0.0238942630792291 -0.04592796733552939 0.928 1 60 81 255
0.025300865780388322 -0.04592796733552939 0.928 1 60 81 255
0.026765209533341924 -0.04602695002375251 0.93 0 56 77 255
0.02823580941334898 -0.04612593271197563 0.932 0 59 80 255
0.029680864557196852 -0.0461754240560872 0.933 6 66 86 255
0.031129165603939336 -0.046224915400198754 0.934 8 68 88 255
0.03261556914073707 -0.04632389808842188 0.936 9 69 89 255
0.0341810000949862 -0.04652186346486812 0.94 10 70 90 255
0.03568305384686608 -0.04662084615309125 0.942 12 73 93 255
0.037152035971953185 -0.046670337497202806 0.943 13 76 95 255
