ply
format ascii 1.0
element vertex 766
property float x
property float y
property float z
property uchar red
property uchar green
property uchar blue
property uchar alpha
element face 0
property list uchar int vertex_indices
end_header
0.16699757250269465 -0.09776293438035907 0.97 39 98 119 255
0.16870861536919676 -0.09786372091064811 0.971 38 99 121 255
0.17042409482764864 -0.09796450744093714 0.972 37 101 124 255
0.17196710653166977 -0.09796450744093714 0.972 37 103 125 255
0.17351141042916166 -0.09796450744093714 0.972 34 102 125 255
0.17523711903510114 -0.09806529397122617 0.973 33 101 125 255
0.17678563695070307 -0.09806529397122617 0.973 35 105 129 255
0.17833548665240567 -0.09806529397122617 0.973 38 108 134 255
0.1800715593739646 -0.0981660805015152 0.974 39 109 135 255
0.18181218086315165 -0.09826686703180423 0.975 42 113 138 255
0.18336929719088932 -0.09826686703180423 0.975 49 117 143 255
0.18492779974362836 -0.09826686703180423 0.975 42 111 135 255
0.18648770155312103 -0.09826686703180423 0.975 38 108 133 255
0.18804901569459598 -0.09826686703180423 0.975 36 108 133 255
0.18941728169205807 -0.0981660805015152 0.974 40 115 139 255
0.19097985561407713 -0.0981660805015152 0.974 42 119 142 255
0.19234619621533777 -0.09806529397122617 0.973 41 118 141 255
0.1939100767688166 -0.09806529397122617 0.973 39 117 139 255
0.19527453294111297 -0.09796450744093714 0.972 39 117 140 255
0.19663725712946403 -0.09786372091064811 0.971 39 116 139 255
0.19799825806800564 -0.09776293438035907 0.97 37 114 137 255
0.19935754448291482 -0.09766214785007005 0.969 37 114 137 255
0.2009224754284897 -0.09766214785007005 0.969 37 114 137 255
0.20227997552506208 -0.09756136131978102 0.968 39 116 139 255
0.20384637392737626 -0.09756136131978102 0.968 39 119 141 255
0.20520212894541362 -0.097460574789492 0.967 45 125 147 255
0.2067700425249157 -0.097460574789492 0.967 54 131 154 255
0.2083395431902053 -0.097460574789492 0.967 43 122 144 255
0.20991064461299136 -0.097460574789492 0.967 39 120 143 255
0.2117020609920735 -0.09756136131978102 0.968 37 120 141 255
0.21327803321941388 -0.09756136131978102 0.968 39 122 143 255
0.21485564922470984 -0.09756136131978102 0.968 36 119 140 255
0.21621133310416704 -0.097460574789492 0.967 30 118 137 255
0.2177906451881867 -0.097460574789492 0.967 25 112 132 255
0.21937164114608226 -0.097460574789492 0.967 27 114 134 255
0.22118282967522693 -0.09756136131978102 0.968 32 116 137 255
0.22276887402682033 -0.09756136131978102 0.968 30 114 135 255
0.2243566463173112 -0.09756136131978102 0.968 32 113 135 255
0.225946160765194 -0.09756136131978102 0.968 35 115 137 255
0.2275374316451702 -0.09756136131978102 0.968 38 113 137 255
0.22913047328870118 -0.09756136131978102 0.968 46 118 143 255
0.2309636526672919 -0.09766214785007005 0.969 48 120 144 255
0.23256192846955687 -0.09766214785007005 0.969 52 122 146 255
-0.028434437654776247 -0.10111964200479237 0.988 127 121 125 255
-0.026909433755650178 -0.10101729418899805 0.987 129 123 127 255
-0.025387654521681013 -0.10091494637320372 0.986 130 124 128 255
-0.023820623480841633 -0.10060790292582075 0.983 131 125 129 255
-0.022308290428198464 -0.10050555511002643 0.982 133 127 131 255
-0.020799147908693544 -0.1004032072942321 0.981 131 125 129 255
-0.01927349784878482 -0.10019851166264346 0.979 127 121 123 255
-0.01777221791370537 -0.10009616384684913 0.978 127 121 123 255
-0.016257437862703065 -0.09989146821526049 0.976 127 121 123 255
-0.014763975792216777 -0.09978912039946616 0.975 127 121 123 255
-0.013260020784756025 -0.09958442476787752 0.973 130 121 124 255
-0.011762218854505083 -0.09937972913628886 0.971 129 121 120 255
-0.010281158026306098 -0.09927738132049453 0.97 129 121 120 255
-0.008803199544829492 -0.09917503350470021 0.969 131 123 122 255
-0.007328332676414572 -0.09907268568890588 0.968 130 122 121 255
-0.005850490324413667 -0.09886799005731724 0.966 131 123 122 255
-0.004383288801711459 -0.09876564224152291 0.965 131 123 122 255
-0.002916118767894797 -0.09856094660993427 0.963 131 123 122 255
-0.0014580541613087828 -0.09856094660993427 0.963 128 120 119 255
-4.707542295922426e-17 -0.09835625097834562 0.961 124 115 118 255
0.0014519978615732424 -0.09815155534675697 0.959 120 111 114 255
0.0029040061250374043 -0.09815155534675697 0.959 117 108 112 255
0.0043514929243932505 -0.09804920753096265 0.958 113 110 107 255
0.005795982650583633 -0.09794685971516832 0.957 111 108 105 255
0.007237485577120083 -0.097844511899374 0.956 109 105 102 255
0.008666927106054947 -0.09763981626778535 0.954 109 103 101 255
0.010100972782546 -0.09753746845199102 0.953 116 110 108 255
0.01151994864122991 -0.09733277282040237 0.951 114 108 106 255
0.01294657733352326 -0.09723042500460805 0.95 112 107 105 255
0.01438541231036497 -0.09723042500460805 0.95 121 115 117 255
0.01579103595680575 -0.0970257293730194 0.948 121 115 116 255
0.01719071385108915 -0.09682103374143075 0.946 120 114 116 255
0.018623829381971754 -0.09682103374143075 0.946 121 115 116 255
0.020035876425805614 -0.09671868592563643 0.945 118 112 113 255
0.02144503682710719 -0.0966163381098421 0.944 115 109 110 255
0.022851320389047372 -0.09651399029404778 0.943 117 111 112 255
0.024280485004001123 -0.09651399029404778 0.943 118 112 114 255
0.02568255987621314 -0.09641164247825346 0.942 118 112 113 255
0.027110567075707623 -0.09641164247825346 0.942 117 111 112 255
0.028508472808971442 -0.09630929466245913 0.941 114 108 110 255
0.029903550572095428 -0.09620694684666481 0.94 115 109 111 255
0.03129580995942081 -0.09610459903087049 0.939 116 110 112 255
0.03272010622131635 -0.09610459903087049 0.939 122 116 118 255
0.03407191179681072 -0.09589990339928184 0.937 118 112 118 255
0.03549365334874046 -0.09589990339928184 0.937 109 102 110 255
0.03687625203578811 -0.09579755558348751 0.936 95 90 99 255
0.038296995638051334 -0.09579755558348751 0.936 64 61 76 255
0.039675580534828774 -0.09569520776769319 0.935 38 35 50 255
0.04105141379053179 -0.09559285995189887 0.934 35 27 44 255
0.04246997579489256 -0.09559285995189887 0.934 26 24 35 255
0.04388884302950379 -0.09559285995189887 0.934 29 30 43 255
0.04525951609716358 -0.09549051213610454 0.933 44 49 61 255
0.046677504784039675 -0.09549051213610454 0.933 75 84 94 255
0.04804427951185707 -0.09538816432031022 0.932 113 121 131 255
0.04940835912620739 -0.0952858165045159 0.931 123 129 138 255
0.050769752774984106 -0.09518346868872157 0.93 122 127 137 255
0.05218458202597276 -0.09518346868872157 0.93 126 125 136 255
0.053542152777664435 -0.09508112087292725 0.929 121 120 129 255
0.05495622154035299 -0.09508112087292725 0.929 118 117 125 255
0.05631000726517811 -0.09497877305713293 0.928 118 117 124 255
0.057723355025872336 -0.09497877305713293 0.928 117 117 121 255
0.059137118806296754 -0.09497877305713293 0.928 119 118 122 255
0.06055130892262315 -0.09497877305713293 0.928 119 118 120 255
0.06189916206574393 -0.0948764252413386 0.927 119 118 120 255
0.06331271098803011 -0.0948764252413386 0.927 119 118 118 255
0.06465689291866115 -0.09477407742554428 0.926 122 121 121 255
0.06606984006983202 -0.09477407742554428 0.926 120 119 120 255
0.06741038820310045 -0.09467172960974995 0.925 122 121 121 255
0.06874836998125117 -0.09456938179395563 0.924 120 119 119 255
0.07015972461581364 -0.09456938179395563 0.924 121 117 118 255
0.07157158638991269 -0.09456938179395563 0.924 120 116 117 255
0.0729839656967572 -0.09456938179395563 0.924 121 117 119 255
0.07439687294459472 -0.09456938179395563 0.924 121 117 118 255
0.07581031855702178 -0.09456938179395563 0.924 122 118 119 255
0.07722431297329746 -0.09456938179395563 0.924 124 120 121 255
0.07872397364719157 -0.09467172960974995 0.925 125 121 122 255
0.08014062857198787 -0.09467172960974995 0.925 126 122 123 255
0.08155786434345258 -0.09467172960974995 0.925 124 120 121 255
0.0829756914779978 -0.09467172960974995 0.925 125 121 124 255
0.08448535739632727 -0.09477407742554428 0.926 127 123 126 255
0.08590593297450234 -0.09477407742554428 0.926 126 122 125 255
0.08732713224332811 -0.09477407742554428 0.926 124 120 123 255
0.08874896580159466 -0.09477407742554428 0.926 121 117 120 255
0.0901714442666474 -0.09477407742554428 0.926 121 117 123 255
0.09159457827470956 -0.09477407742554428 0.926 125 121 126 255
0.0930183784812067 -0.09477407742554428 0.926 125 121 126 255
0.09444285556109254 -0.09477407742554428 0.926 123 122 126 255
0.095868020209175 -0.09477407742554428 0.926 125 123 129 255
0.097293883140446 -0.09477407742554428 0.926 124 122 129 255
0.09872045509040862 -0.09477407742554428 0.926 122 120 127 255
0.10014774681540956 -0.09477407742554428 0.926 122 120 127 255
0.10168546214814618 -0.0948764252413386 0.927 124 122 129 255
0.1032270047150405 -0.09497877305713293 0.928 124 122 129 255
0.10477238777380898 -0.09508112087292725 0.929 125 123 130 255
0.10632162465118454 -0.09518346868872157 0.93 127 125 131 255
0.1078747287433775 -0.0952858165045159 0.931 127 125 132 255
0.10943171351653576 -0.09538816432031022 0.932 127 125 132 255
0.1108736293855547 -0.09538816432031022 0.932 127 125 132 255
0.11231635709730742 -0.09538816432031022 0.932 125 123 130 255
0.11388196766862183 -0.09549051213610454 0.933 125 124 131 255
0.1153279019491496 -0.09549051213610454 0.933 128 127 134 255
0.11689984257372295 -0.09559285995189887 0.934 129 128 135 255
0.11834903139047635 -0.09559285995189887 0.934 127 127 134 255
0.11979908930853862 -0.09559285995189887 0.934 126 128 134 255
0.12125002750730765 -0.09559285995189887 0.934 127 129 135 255
0.1227018571923791 -0.09559285995189887 0.934 127 129 135 255
0.12415458959590285 -0.09559285995189887 0.934 129 131 137 255
0.12560823597694412 -0.09559285995189887 0.934 129 131 137 255
0.12719884917175836 -0.09569520776769319 0.935 126 131 136 255
0.1287935156643699 -0.09579755558348751 0.936 106 119 126 255
0.13039224984146863 -0.09589990339928184 0.937 34 60 73 255
0.1319950661668082 -0.09600225121507616 0.938 28 63 80 255
0.1336019791817282 -0.09610459903087049 0.939 24 61 78 255
0.13506915988492843 -0.09610459903087049 0.939 22 61 77 255
0.1368281538367552 -0.09630929466245913 0.941 22 61 77 255
0.13844744495222625 -0.09641164247825346 0.942 19 61 76 255
0.14007089170907888 -0.09651399029404778 0.943 16 58 73 255
0.14169850904455938 -0.0966163381098421 0.944 15 57 72 255
0.14317863968891478 -0.0966163381098421 0.944 16 59 74 255
0.1451195569533971 -0.09692338155722507 0.947 19 63 79 255
0.14691615820487386 -0.09712807718881372 0.949 19 63 79 255
0.14872013444668122 -0.09733277282040237 0.951 18 62 78 255
0.15037354911879294 -0.09743512063619669 0.952 18 63 79 255
0.15282887472042092 -0.09804920753096265 0.958 13 60 77 255
0.1546598141909531 -0.0982539031625513 0.96 15 63 79 255
0.1563355284056649 -0.09835625097834562 0.961 17 64 81 255
0.15817981960145683 -0.09856094660993427 0.963 16 65 83 255
0.16019743921501547 -0.09886799005731724 0.966 17 68 86 255
0.16189089936038964 -0.09897033787311156 0.967 25 79 96 255
0.16341973419518052 -0.09897033787311156 0.967 29 84 101 255
0.16529094977372258 -0.09917503350470021 0.969 32 87 106 255
0.16699757250269465 -0.09927738132049453 0.97 35 94 117 255
0.16870861536919676 -0.09937972913628886 0.971 37 98 122 255
0.17042409482764864 -0.09948207695208319 0.972 39 103 126 255
0.17214402742316326 -0.09958442476787752 0.973 41 107 130 255
0.17368992011067313 -0.09958442476787752 0.973 39 107 131 255
0.1754172188491146 -0.09968677258367184 0.974 39 107 131 255
0.1771490195549183 -0.09978912039946616 0.975 38 106 130 255
0.17870205497029346 -0.09978912039946616 0.975 37 105 131 255
0.18044131616939368 -0.09989146821526049 0.976 38 106 132 255
0.18199865489480616 -0.09989146821526049 0.976 43 111 137 255
0.18355736826493127 -0.09989146821526049 0.976 51 116 141 255
0.18511746928182693 -0.09989146821526049 0.976 46 111 136 255
0.1868702404281018 -0.09999381603105481 0.977 44 112 136 255
0.18843475726525158 -0.09999381603105481 0.977 44 114 139 255
0.1900007024775572 -0.09999381603105481 0.977 43 115 140 255
0.19156808925559893 -0.09999381603105481 0.977 49 123 147 255
0.19293924718003053 -0.09989146821526049 0.976 49 124 148 255
0.19450794956460948 -0.09989146821526049 0.976 48 122 144 255
0.19587723211685715 -0.09978912039946616 0.975 44 118 140 255
0.19744729732361221 -0.09978912039946616 0.975 43 117 139 255
0.19881474573014177 -0.09968677258367184 0.974 43 118 141 255
0.2001804858430094 -0.09958442476787752 0.973 43 117 141 255
0.2015445264360082 -0.09948207695208319 0.972 45 121 144 255
0.20290687627565626 -0.09937972913628886 0.971 47 124 147 255
0.20426754412144105 -0.09927738132049453 0.97 54 131 154 255
0.20583874361639218 -0.09927738132049453 0.97 62 138 159 255
0.20741152145725775 -0.09927738132049453 0.97 57 131 153 255
0.20898589130765166 -0.09927738132049453 0.97 52 127 151 255
0.21034479279212884 -0.09917503350470021 0.969 49 125 150 255
0.21213946194453648 -0.09927738132049453 0.97 44 121 146 255
0.21371869031284244 -0.09927738132049453 0.97 46 126 150 255
0.21529956585533944 -0.09927738132049453 0.97 46 125 148 255
0.21688210249332163 -0.09927738132049453 0.97 41 124 145 255
0.21846631420118 -0.09927738132049453 0.97 34 117 138 255
0.22005221500692845 -0.09927738132049453 0.97 37 120 141 255
0.2218683136514931 -0.09937972913628886 0.971 41 124 143 255
0.22368940656412126 -0.09948207695208319 0.972 42 123 143 255
0.2252837398971348 -0.09948207695208319 0.972 43 120 141 255
0.22687982258653774 -0.09948207695208319 0.972 50 125 146 255
-0.028434437654776247 -0.10266268010888528 0.988 131 124 126 255
-0.02688216989166269 -0.10245486091838146 0.986 130 124 126 255
-0.025361906393362877 -0.10235095132312956 0.985 128 122 125 255
-0.023820623480841633 -0.10214313213262574 0.983 129 123 126 255
-0.022308290428198464 -0.10203922253737384 0.982 132 126 129 255
-0.020777945923057775 -0.10183140334687002 0.98 132 126 128 255
-0.01927349784878482 -0.1017274937516181 0.979 129 123 125 255
-0.017754045911748617 -0.1015196745611143 0.977 127 121 123 255
-0.016257437862703065 -0.10141576496586238 0.976 128 122 123 255
-0.014763975792216777 -0.10131185537061048 0.975 128 123 121 255
-0.013260020784756025 -0.10110403618010666 0.973 130 124 122 255
-0.011750105343841327 -0.10079230739435094 0.97 129 124 122 255
-0.010270558894320214 -0.10068839779909902 0.969 129 124 122 255
-0.008803199544829492 -0.10068839779909902 0.969 131 124 122 255
-0.007328332676414572 -0.10058448820384712 0.968 130 122 121 255
-0.005850490324413667 -0.1003766690133433 0.966 131 123 122 255
-0.004383288801711459 -0.1002727594180914 0.965 131 123 122 255
-0.002916118767894797 -0.10006494022758758 0.963 131 123 122 255
-0.0014580541613087828 -0.10006494022758758 0.963 130 122 121 255
-4.707542295922426e-17 -0.09985712103708376 0.961 128 120 119 255
0.0014519978615732424 -0.09964930184657994 0.959 125 117 116 255
0.0029040061250374043 -0.09964930184657994 0.959 121 113 112 255
0.0043514929243932505 -0.09954539225132804 0.958 118 110 109 255
0.005789926242380306 -0.09933757306082422 0.956 114 106 105 255
0.007237485577120083 -0.09933757306082422 0.956 115 107 106 255
0.008666927106054947 -0.0991297538703204 0.954 117 109 108 255
0.01009037365056012 -0.09892193467981658 0.952 119 111 110 255
0.011507835130566156 -0.09871411548931276 0.95 122 114 113 255
0.01294657733352326 -0.09871411548931276 0.95 121 115 117 255
0.014355127231816834 -0.09850629629880896 0.948 121 115 117 255
0.01577437874588085 -0.09840238670355704 0.947 121 115 117 255
0.01719071385108915 -0.09829847710830514 0.946 120 114 116 255
0.018604142458735 -0.09819456751305322 0.945 122 115 117 255
0.02001467444016984 -0.09809065791780132 0.944 119 112 114 255
0.021422319627078475 -0.09798674832254942 0.943 119 110 113 255
0.022851320389047372 -0.09798674832254942 0.943 122 113 116 255
0.024254736875682983 -0.0978828387272975 0.942 121 112 115 255
0.02568255987621314 -0.0978828387272975 0.942 120 111 114 255
0.02708178728051048 -0.0977789291320456 0.941 119 112 114 255
0.028508472808971442 -0.0977789291320456 0.941 117 110 113 255
0.029871738284252776 -0.09757110994154178 0.939 119 113 115 255
0.03129580995942081 -0.09757110994154178 0.939 120 114 116 255
0.03272010622131635 -0.09757110994154178 0.939 119 113 115 255
0.03407191179681072 -0.09736329075103797 0.937 116 110 112 255
0.03545577324911534 -0.09725938115578607 0.936 119 113 115 255
0.03687625203578811 -0.09725938115578607 0.936 120 115 117 255
0.03825608004442094 -0.09715547156053415 0.935 113 109 112 255
0.039633146758855695 -0.09705156196528225 0.934 108 102 107 255
0.04105141379053179 -0.09705156196528225 0.934 111 102 108 255
0.04246997579489256 -0.09705156196528225 0.934 92 87 95 255
0.04388884302950379 -0.09705156196528225 0.934 50 48 62 255
0.04525951609716358 -0.09694765237003033 0.933 30 34 49 255
0.04662747530409966 -0.09684374277477843 0.932 28 34 50 255
0.04804427951185707 -0.09684374277477843 0.932 27 32 48 255
0.04940835912620739 -0.09673983317952652 0.931 47 48 65 255
0.050769752774984106 -0.09663592358427461 0.93 61 57 75 255
0.05207235711839003 -0.0964281043937708 0.928 77 69 86 255
0.053484518598140574 -0.0964281043937708 0.928 102 99 111 255
0.05489706522007274 -0.0964281043937708 0.928 115 112 121 255
0.05631000726517811 -0.0964281043937708 0.928 121 118 122 255
0.05766115313468067 -0.09632419479851889 0.927 115 113 116 255
0.05907339346275549 -0.09632419479851889 0.927 120 118 120 255
0.060486059667318605 -0.09632419479851889 0.927 122 119 120 255
0.06189916206574393 -0.09632419479851889 0.927 121 118 119 255
0.0632444124864249 -0.09622028520326698 0.926 119 118 119 255
0.06465689291866115 -0.09622028520326698 0.926 120 119 120 255
0.06606984006983202 -0.09622028520326698 0.926 123 122 122 255
0.06741038820310045 -0.09611637560801507 0.925 123 122 123 255
0.06874836998125117 -0.09601246601276317 0.924 121 120 121 255
0.07015972461581364 -0.09601246601276317 0.924 120 119 120 255
0.07157158638991269 -0.09601246601276317 0.924 122 119 120 255
0.0729839656967572 -0.09601246601276317 0.924 122 119 120 255
0.07439687294459472 -0.09601246601276317 0.924 123 120 121 255
0.07581031855702178 -0.09601246601276317 0.924 125 121 122 255
0.07722431297329746 -0.09601246601276317 0.924 125 121 122 255
0.07863886664865406 -0.09601246601276317 0.924 124 120 122 255
0.08005399005461275 -0.09601246601276317 0.924 125 121 124 255
0.08155786434345258 -0.09611637560801507 0.925 125 121 124 255
0.0829756914779978 -0.09611637560801507 0.925 124 120 123 255
0.0843941205092902 -0.09611637560801507 0.925 126 122 126 255
0.08590593297450234 -0.09622028520326698 0.926 126 122 127 255
0.08732713224332811 -0.09622028520326698 0.926 125 122 127 255
0.08874896580159466 -0.09622028520326698 0.926 124 121 126 255
0.09007406689702899 -0.09611637560801507 0.925 124 121 126 255
0.09149566404331137 -0.09611637560801507 0.925 125 123 127 255
0.092917926668592 -0.09611637560801507 0.925 124 123 127 255
0.09434086543629655 -0.09611637560801507 0.925 123 122 126 255
0.09576449102968344 -0.09611637560801507 0.925 124 123 127 255
0.09718881415217337 -0.09611637560801507 0.925 124 123 127 255
0.09861384552767599 -0.09611637560801507 0.925 123 122 126 255
0.10003959590092207 -0.09611637560801507 0.925 124 121 125 255
0.1015757690929702 -0.09622028520326698 0.926 123 121 125 255
0.10311576871858033 -0.09632419479851889 0.927 124 121 127 255
0.10465960802378334 -0.0964281043937708 0.928 125 123 130 255
0.1060929759960207 -0.0964281043937708 0.928 127 125 132 255
0.10775885900251457 -0.09663592358427461 0.93 131 129 136 255
0.10931429751490856 -0.09673983317952652 0.931 131 129 136 255
0.11075466626389636 -0.09673983317952652 0.931 130 128 135 255
0.11231635709730742 -0.09684374277477843 0.932 127 125 132 255
0.11375990768183873 -0.09684374277477843 0.932 129 128 135 255
0.1153279019491496 -0.09694765237003033 0.933 130 129 136 255
0.11677468214270181 -0.09694765237003033 0.933 130 129 136 255
0.11834903139047635 -0.09705156196528225 0.934 130 130 137 255
0.11979908930853862 -0.09705156196528225 0.934 129 131 137 255
0.12125002750730765 -0.09705156196528225 0.934 129 131 137 255
0.1227018571923791 -0.09705156196528225 0.934 130 132 138 255
0.12415458959590285 -0.09705156196528225 0.934 131 133 139 255
0.12560823597694412 -0.09705156196528225 0.934 129 134 139 255
0.1273348907216747 -0.09725938115578607 0.936 129 135 138 255
0.1287935156643699 -0.09725938115578607 0.936 93 104 115 255
0.13039224984146863 -0.09736329075103797 0.937 31 57 73 255
0.1319950661668082 -0.09746720034628988 0.938 26 62 80 255
0.1334596980537391 -0.09746720034628988 0.938 23 62 78 255
0.13506915988492843 -0.09757110994154178 0.939 22 62 78 255
0.1368281538367552 -0.0977789291320456 0.941 19 61 77 255
0.13830047314229818 -0.0977789291320456 0.941 20 62 77 255
0.13992235417810425 -0.0978828387272975 0.942 20 62 77 255
0.14154840469175797 -0.09798674832254942 0.943 16 60 75 255
0.14302696740110873 -0.09798674832254942 0.943 15 59 75 255
0.14496631560497747 -0.09829847710830514 0.946 18 64 80 255
0.14660653511065916 -0.09840238670355704 0.947 20 65 82 255
0.14825098575757498 -0.09850629629880896 0.948 20 65 82 255
0.15005763830131646 -0.09871411548931276 0.95 18 65 82 255
0.15203122923649387 -0.0990258442750685 0.953 15 62 79 255
0.15401539829849079 -0.09933757306082422 0.956 16 63 80 255
0.1558474882545546 -0.09954539225132804 0.958 18 65 82 255
0.15768704757777627 -0.09975321144183186 0.96 18 67 84 255
0.1598657674982142 -0.10016884982283948 0.964 20 69 87 255
0.16155606813110238 -0.1002727594180914 0.965 23 73 92 255
0.16341973419518052 -0.1004805786085952 0.967 26 77 97 255
0.16529094977372258 -0.10068839779909902 0.969 26 80 100 255
0.16699757250269465 -0.10079230739435094 0.97 34 93 118 255
0.16888236265587975 -0.10100012658485476 0.972 41 102 126 255
0.17042409482764864 -0.10100012658485476 0.972 41 105 128 255
0.17214402742316326 -0.10110403618010666 0.973 46 110 132 255
0.17386842979218464 -0.10120794577535856 0.974 45 110 131 255
0.17559731866312808 -0.10131185537061048 0.975 43 109 131 255
0.1773307108570259 -0.10141576496586238 0.976 41 106 130 255
0.17888533912923732 -0.10141576496586238 0.976 39 104 130 255
0.18062619456710824 -0.1015196745611143 0.977 39 104 130 255
0.18218512892646066 -0.1015196745611143 0.977 41 106 132 255
0.1837454393389732 -0.1015196745611143 0.977 42 107 134 255
0.18549680835822413 -0.1016235841563662 0.978 45 110 136 255
0.1870615098655922 -0.1016235841563662 0.978 47 113 139 255
0.18862762805057937 -0.1016235841563662 0.978 47 115 140 255
0.19038964966788996 -0.1017274937516181 0.979 46 115 141 255
0.19333461448982567 -0.1016235841563662 0.978 59 130 153 255
0.19490653142847136 -0.1016235841563662 0.978 59 129 152 255
0.19627903156735327 -0.1015196745611143 0.977 53 123 146 255
0.1978523174206863 -0.1015196745611143 0.977 54 124 147 255
0.19922298956120982 -0.10141576496586238 0.976 53 124 147 255
0.2005919565230567 -0.10131185537061048 0.975 53 124 148 255
0.20195922710768724 -0.10120794577535856 0.974 55 126 150 255
0.20332481010938575 -0.10110403618010666 0.973 56 129 151 255
0.2046887143155059 -0.10100012658485476 0.972 61 134 157 255
0.20626315339704449 -0.10100012658485476 0.972 65 136 159 255
0.20762534776803843 -0.10089621698960284 0.971 62 134 157 255
0.20920134068013382 -0.10089621698960284 0.971 57 128 152 255
-0.028405657859579103 -0.10410074196646223 0.987 136 131 130 255
-0.02688216989166269 -0.10399527009010309 0.986 133 127 129 255
-0.025361906393362877 -0.10388979821374396 0.985 130 124 126 255
-0.023820623480841633 -0.1036788544610257 0.983 132 126 128 255
-0.022308290428198464 -0.10357338258466657 0.982 133 127 129 255
-0.020777945923057775 -0.1033624388319483 0.98 133 127 129 255
-0.01927349784878482 -0.10325696695558917 0.979 132 126 128 255
-0.017754045911748617 -0.10304602320287091 0.977 130 124 124 255
-0.016257437862703065 -0.10294055132651178 0.976 130 125 123 255
-0.014763975792216777 -0.10283507945015265 0.975 130 125 123 255
-0.013246392808615474 -0.10251866382107526 0.972 132 127 125 255
-0.011750105343841327 -0.10230772006835699 0.97 129 124 122 255
-0.010270558894320214 -0.10220224819199786 0.969 132 126 124 255
-0.008803199544829492 -0.10220224819199786 0.969 130 125 123 255
-0.0073207620848067066 -0.1019913044392796 0.967 130 123 122 255
-0.005850490324413667 -0.10188583256292047 0.966 130 122 121 255
-0.004378746533523157 -0.1016748888102022 0.964 131 123 122 255
-0.002916118767894797 -0.10156941693384308 0.963 130 122 121 255
-0.0014565400863749212 -0.10146394505748395 0.962 131 123 122 255
-4.707542295922426e-17 -0.10135847318112481 0.961 128 120 119 255
0.0014519978615732424 -0.10114752942840656 0.959 127 119 118 255
0.0029040061250374043 -0.10114752942840656 0.959 124 116 115 255
0.0043514929243932505 -0.10104205755204743 0.958 121 113 113 255
0.005789926242380306 -0.10083111379932916 0.956 116 107 109 255
0.007229914985512217 -0.10072564192297002 0.955 117 108 111 255
0.008648757447551688 -0.10040922629389264 0.952 121 112 115 255
0.010079774518574237 -0.1003037544175335 0.951 122 115 117 255
0.0114957216199024 -0.10009281066481525 0.949 124 118 120 255
0.012919321381242159 -0.09998733878845611 0.948 122 116 118 255
0.014339984692542766 -0.09988186691209698 0.947 121 116 119 255
0.015741064324031048 -0.09967092315937871 0.945 120 115 117 255
0.017154369847175645 -0.0995654512830196 0.944 119 113 116 255
0.018564768612261487 -0.09945997940666046 0.943 121 115 118 255
0.01999347245453407 -0.09945997940666046 0.943 120 114 118 255
0.02139960242704976 -0.09935450753030133 0.942 119 113 117 255
0.022802855234457665 -0.09924903565394219 0.941 121 115 118 255
0.024203240619046718 -0.09914356377758306 0.94 120 114 117 255
0.025628032148238167 -0.09914356377758306 0.94 120 114 116 255
0.027053007485313335 -0.09914356377758306 0.94 120 114 116 255
0.028447880943277562 -0.09903809190122394 0.939 120 114 116 255
0.029839925996410124 -0.0989326200248648 0.938 122 116 118 255
0.03126248108832451 -0.0989326200248648 0.938 123 117 119 255
0.03268526052778993 -0.0989326200248648 0.938 121 115 119 255
0.034035549030752225 -0.09872167627214655 0.936 122 116 120 255
0.03541789314949022 -0.09861620439578742 0.935 121 115 118 255
0.03679745662545522 -0.0985107325194283 0.934 120 114 116 255
0.03821516445079054 -0.0985107325194283 0.934 119 113 115 255
0.039590712982882616 -0.09840526064306916 0.933 119 113 115 255
0.04100746152737275 -0.09840526064306916 0.933 117 111 113 255
0.04242450472873101 -0.09840526064306916 0.933 117 114 115 255
0.04384185283354072 -0.09840526064306916 0.933 110 109 110 255
0.04521100643360821 -0.09829978876671003 0.932 99 99 105 255
0.04662747530409966 -0.09829978876671003 0.932 75 80 89 255
0.04799272985572847 -0.0981943168903509 0.931 65 67 79 255
0.04935528892306431 -0.09808884501399176 0.93 57 53 68 255
0.05071516164296799 -0.09798337313763264 0.929 48 35 56 255
0.05207235711839003 -0.0978779012612735 0.928 37 24 46 255
0.053484518598140574 -0.0978779012612735 0.928 32 24 42 255
0.05489706522007274 -0.0978779012612735 0.928 35 30 45 255
0.056249328378038914 -0.09777242938491437 0.927 47 45 55 255
0.05766115313468067 -0.09777242938491437 0.927 87 83 90 255
0.05907339346275549 -0.09777242938491437 0.927 125 121 125 255
0.060486059667318605 -0.09777242938491437 0.927 125 123 126 255
0.06183238842813256 -0.09766695750855524 0.926 125 124 126 255
0.0632444124864249 -0.09766695750855524 0.926 123 122 124 255
0.06458706906021768 -0.0975614856321961 0.925 121 120 122 255
0.06599849035053415 -0.0975614856321961 0.925 122 121 123 255
0.06733751210774575 -0.09745601375583698 0.924 122 121 123 255
0.06874836998125117 -0.09745601375583698 0.924 121 120 122 255
0.07015972461581364 -0.09745601375583698 0.924 124 123 127 255
0.07157158638991269 -0.09745601375583698 0.924 124 123 126 255
0.07290497872089491 -0.09735054187947785 0.923 123 122 124 255
0.07431635684833436 -0.09735054187947785 0.923 123 122 124 255
0.07572827275771764 -0.09735054187947785 0.923 124 123 125 255
0.07722431297329746 -0.09745601375583698 0.924 124 122 124 255
0.07863886664865406 -0.09745601375583698 0.924 123 119 122 255
0.08005399005461275 -0.09745601375583698 0.924 124 120 123 255
0.08155786434345258 -0.0975614856321961 0.925 126 122 125 255
0.0829756914779978 -0.0975614856321961 0.925 126 122 125 255
0.0843941205092902 -0.0975614856321961 0.925 125 122 126 255
0.08581316198856875 -0.0975614856321961 0.925 120 118 123 255
0.087232826484966 -0.0975614856321961 0.925 123 122 126 255
0.08865312458582619 -0.0975614856321961 0.925 125 124 128 255
0.09007406689702899 -0.0975614856321961 0.925 125 124 128 255
0.09149566404331137 -0.0975614856321961 0.925 124 123 127 255
0.092917926668592 -0.0975614856321961 0.925 124 123 127 255
0.09423887531150055 -0.09745601375583698 0.924 123 122 126 255
0.0956609618501919 -0.09745601375583698 0.924 125 124 128 255
0.09697867617562814 -0.09735054187947785 0.923 125 124 128 255
0.09840062640221076 -0.09735054187947785 0.923 125 124 128 255
0.09982329407194711 -0.09735054187947785 0.923 124 123 127 255
0.10146607603779421 -0.0975614856321961 0.925 123 122 126 255
0.10289329672566 -0.0975614856321961 0.925 124 123 127 255
0.10443404852373209 -0.09766695750855524 0.926 125 123 130 255
0.10597865166843877 -0.09777242938491437 0.927 125 123 130 255
0.10752711952078874 -0.0978779012612735 0.928 125 123 130 255
0.1090794655116542 -0.09798337313763264 0.929 126 124 131 255
0.11063570314223806 -0.09808884501399176 0.93 130 128 134 255
0.11219584598454208 -0.0981943168903509 0.931 131 129 136 255
0.11363784769505565 -0.0981943168903509 0.931 132 130 137 255
0.11520429219357708 -0.09829978876671003 0.932 133 131 139 255
0.1166495217116807 -0.09829978876671003 0.932 132 131 138 255
0.11822231936543302 -0.09840526064306916 0.933 131 131 138 255
0.11979908930853862 -0.0985107325194283 0.934 128 130 136 255
0.12125002750730765 -0.0985107325194283 0.934 127 129 135 255
0.1227018571923791 -0.0985107325194283 0.934 128 130 136 255
0.12415458959590285 -0.0985107325194283 0.934 131 133 139 255
0.12574272016963892 -0.09861620439578742 0.935 129 134 140 255
0.12719884917175836 -0.09861620439578742 0.935 134 141 147 255
0.1287935156643699 -0.09872167627214655 0.936 63 76 90 255
0.13039224984146863 -0.09882714814850568 0.937 28 57 75 255
0.1319950661668082 -0.0989326200248648 0.938 24 62 80 255
0.1334596980537391 -0.0989326200248648 0.938 21 61 79 255
0.13506915988492843 -0.09903809190122394 0.939 20 63 79 255
0.1366827466594579 -0.09914356377758306 0.94 20 63 80 255
0.13830047314229818 -0.09924903565394219 0.941 20 63 79 255
0.13992235417810425 -0.09935450753030133 0.942 20 64 79 255
0.1413983003389565 -0.09935450753030133 0.942 17 63 78 255
0.14302696740110873 -0.09945997940666046 0.943 14 60 76 255
0.14481307425655784 -0.09967092315937871 0.945 16 63 80 255
0.14645172356355182 -0.09977639503573785 0.946 20 67 84 255
0.1480946028612062 -0.09988186691209698 0.947 21 68 83 255
0.14989968289257824 -0.10009281066481525 0.949 20 67 83 255
0.15171217104292306 -0.1003037544175335 0.951 18 65 81 255
0.1538542943253752 -0.10072564192297002 0.955 17 65 80 255
0.15552212815381442 -0.10083111379932916 0.956 17 66 81 255
0.15735853289532256 -0.10104205755204743 0.958 18 67 83 255
0.15953409578141292 -0.10146394505748395 0.962 19 68 84 255
0.16155606813110238 -0.10178036068656134 0.965 21 71 90 255
0.16325073757243472 -0.10188583256292047 0.966 24 74 95 255
0.16494979198265194 -0.1019913044392796 0.967 29 82 106 255
0.16682541005681556 -0.10220224819199786 0.969 40 95 120 255
0.16870861536919676 -0.10241319194471613 0.971 43 103 126 255
0.17042409482764864 -0.10251866382107526 0.972 43 104 125 255
0.17214402742316326 -0.1026241356974344 0.973 45 106 126 255
0.1740469394736961 -0.10283507945015265 0.975 46 107 127 255
0.17577741847714154 -0.10294055132651178 0.976 45 107 128 255
0.17751240215913353 -0.10304602320287091 0.977 46 108 132 255
0.17925190744712513 -0.10315149507923005 0.978 45 106 131 255
0.1808110729648228 -0.10315149507923005 0.978 40 104 130 255
0.1825580769897697 -0.10325696695558917 0.979 41 104 131 255
0.184309652561099 -0.1033624388319483 0.98 42 105 131 255
-0.02996267758562471 -0.10585728548802782 0.989 136 131 129 255
-0.028405657859579103 -0.10564321615438166 0.987 136 131 129 255
-0.026854906027675197 -0.1054291468207355 0.985 134 128 130 255
-0.025336158265044748 -0.10532211215391242 0.984 134 128 130 255
-0.02379639090354678 -0.10510804282026626 0.982 133 127 129 255
-0.022308290428198464 -0.10510804282026626 0.982 131 125 127 255
-0.020777945923057775 -0.10489397348662009 0.98 133 127 129 255
-0.01927349784878482 -0.104786938819797 0.979 132 126 127 255
-0.017754045911748617 -0.10457286948615084 0.977 132 127 125 255
-0.016257437862703065 -0.10446583481932777 0.976 130 125 123 255
-0.014763975792216777 -0.10435880015250468 0.975 130 125 123 255
-0.013246392808615474 -0.10403769615203544 0.972 131 126 122 255
-0.011750105343841327 -0.10382362681838928 0.97 131 126 122 255
-0.010270558894320214 -0.10371659215156619 0.969 132 127 123 255
-0.008794114715577861 -0.10360955748474311 0.968 130 125 121 255
-0.0073207620848067066 -0.10350252281792002 0.967 130 123 121 255
-0.005850490324413667 -0.10339548815109695 0.966 130 122 121 255
-0.004378746533523157 -0.10318141881745078 0.964 130 122 121 255
-0.002916118767894797 -0.1030743841506277 0.963 130 122 121 255
-0.0014565400863749212 -0.10296734948380462 0.962 130 122 121 255
-4.707542295922426e-17 -0.10286031481698153 0.961 129 121 120 255
0.0014535119365071038 -0.10275328015015846 0.96 125 120 118 255
0.0029040061250374043 -0.10264624548333537 0.959 123 118 116 255
0.0043514929243932505 -0.1025392108165123 0.958 122 116 114 255
0.005789926242380306 -0.10232514148286613 0.956 116 110 111 255
0.007229914985512217 -0.10221810681604304 0.955 118 109 112 255
0.008648757447551688 -0.1018970028155738 0.952 121 112 115 255
0.010079774518574237 -0.10178996814875071 0.951 123 119 122 255
0.011483608109238647 -0.10146886414828148 0.948 124 122 124 255
0.012905693405101608 -0.10136182948145839 0.947 124 122 124 255
0.014324842153268697 -0.10125479481463531 0.946 123 121 123 255
0.01572440711310615 -0.10104072548098915 0.944 120 118 120 255
0.017118025843262136 -0.10082665614734299 0.942 119 116 119 255
0.018545081689024728 -0.10082665614734299 0.942 120 116 119 255
0.019951068483262523 -0.1007196214805199 0.941 121 117 120 255
0.02135416802699233 -0.10061258681369682 0.94 121 117 120 255
0.02275439007986796 -0.10050555214687373 0.939 122 116 120 255
0.024151744362410448 -0.10039851748005066 0.938 119 113 116 255
0.025573504420263196 -0.10039851748005066 0.938 121 115 117 255
0.026995447894919058 -0.10039851748005066 0.938 121 115 117 255
0.02841758501043062 -0.10039851748005066 0.938 121 115 117 255
0.02980811370856747 -0.10029148281322758 0.937 124 118 121 255
0.031195823346131926 -0.10018444814640451 0.936 126 120 122 255
0.03261556914073707 -0.10018444814640451 0.936 125 119 123 255
0.03396282349863523 -0.09997037881275835 0.934 122 116 120 255
0.03534213295023997 -0.09986334414593526 0.933 122 116 120 255
0.036758058920288786 -0.09986334414593526 0.933 121 115 117 255
0.038133333263529745 -0.09975630947911218 0.932 121 115 117 255
0.03950584543093646 -0.0996492748122891 0.931 118 112 114 255
0.0409195570010547 -0.0996492748122891 0.931 118 112 114 255
0.042379033662569454 -0.09975630947911218 0.932 117 113 114 255
0.043794862637577654 -0.09975630947911218 0.932 116 113 114 255
0.04516249677005284 -0.0996492748122891 0.931 115 111 112 255
0.04657744582415963 -0.0996492748122891 0.931 112 111 113 255
0.047941180199599864 -0.09954224014546602 0.93 114 113 115 255
0.04930221871992123 -0.09943520547864293 0.929 123 120 124 255
0.05066057051095188 -0.09932817081181985 0.928 113 107 115 255
0.05201624466459866 -0.09922113614499677 0.927 103 98 106 255
0.05342688441861672 -0.09922113614499677 0.927 74 69 80 255
0.0548379088997925 -0.09922113614499677 0.927 54 52 62 255
0.056249328378038914 -0.09922113614499677 0.927 98 96 105 255
0.057598951243488995 -0.09911410147817369 0.926 130 128 135 255
0.05900966811921422 -0.09911410147817369 0.926 123 122 126 255
0.06042081041201405 -0.09911410147817369 0.926 125 124 128 255
0.06176561479052119 -0.0990070668113506 0.925 126 125 129 255
0.06317611398481969 -0.0990070668113506 0.925 124 123 127 255
0.06458706906021768 -0.0990070668113506 0.925 123 122 126 255
0.06599849035053415 -0.0990070668113506 0.925 123 122 126 255
0.06733751210774575 -0.09890003214452753 0.924 123 122 126 255
0.06874836998125117 -0.09890003214452753 0.924 125 124 128 255
0.07008379417791774 -0.09879299747770444 0.923 124 123 127 255
0.07149412796308378 -0.09879299747770444 0.923 123 122 126 255
0.07290497872089491 -0.09879299747770444 0.923 121 120 123 255
0.07439687294459472 -0.09890003214452753 0.924 122 121 123 255
0.07581031855702178 -0.09890003214452753 0.924 124 123 125 255
0.07722431297329746 -0.09890003214452753 0.924 123 121 123 255
0.07863886664865406 -0.09890003214452753 0.924 122 121 123 255
0.08005399005461275 -0.09890003214452753 0.924 122 121 125 255
0.08155786434345258 -0.0990070668113506 0.925 124 123 127 255
0.0829756914779978 -0.0990070668113506 0.925 123 122 126 255
0.0843941205092902 -0.0990070668113506 0.925 123 122 126 255
0.08581316198856875 -0.0990070668113506 0.925 124 123 127 255
0.087232826484966 -0.0990070668113506 0.925 124 123 127 255
0.08865312458582619 -0.0990070668113506 0.925 126 125 129 255
0.09007406689702899 -0.0990070668113506 0.925 125 125 129 255
0.09149566404331137 -0.0990070668113506 0.925 126 125 129 255
0.092917926668592 -0.0990070668113506 0.925 126 125 129 255
0.09423887531150055 -0.09890003214452753 0.924 126 125 129 255
0.09555743267070034 -0.09879299747770444 0.923 125 124 128 255
0.09697867617562814 -0.09879299747770444 0.923 125 124 128 255
0.09829401683947814 -0.09868596281088136 0.922 125 124 128 255
0.09971514315745962 -0.09868596281088136 0.922 124 123 127 255
0.10124668992744222 -0.09879299747770444 0.923 124 123 127 255
0.10267082473273964 -0.09879299747770444 0.923 124 123 127 255
0.10420848902368084 -0.09890003214452753 0.924 125 123 130 255
0.10575000301327493 -0.0990070668113506 0.925 127 125 132 255
0.1074112497799258 -0.09922113614499677 0.927 126 124 131 255
0.10884463350839982 -0.09922113614499677 0.927 127 125 132 255
0.1102788137772631 -0.09922113614499677 0.927 127 125 133 255
0.11195482375901136 -0.09943520547864293 0.929 131 130 137 255
0.11351578770827256 -0.09954224014546602 0.93 131 130 137 255
0.11508068243800458 -0.0996492748122891 0.931 131 130 139 255
0.1165243612806596 -0.0996492748122891 0.931 132 131 140 255
0.11822231936543302 -0.09986334414593526 0.933 134 134 142 255
0.11967082475895774 -0.09986334414593526 0.933 131 133 141 255
0.12125002750730765 -0.09997037881275835 0.934 130 132 140 255
0.1227018571923791 -0.09997037881275835 0.934 131 133 140 255
0.12415458959590285 -0.09997037881275835 0.934 132 134 142 255
0.12560823597694412 -0.09997037881275835 0.934 128 133 140 255
0.12719884917175836 -0.10007741347958142 0.935 129 138 148 255
0.12865591575447208 -0.10007741347958142 0.935 61 79 92 255
0.13039224984146863 -0.10029148281322758 0.937 29 60 78 255
0.1319950661668082 -0.10039851748005066 0.938 22 61 79 255
0.1334596980537391 -0.10039851748005066 0.938 19 63 79 255
0.1349253162641777 -0.10039851748005066 0.938 21 65 81 255
0.1365373394821606 -0.10050555214687373 0.939 18 65 80 255
0.13815350133237012 -0.10061258681369682 0.94 18 65 80 255
0.13977381664712962 -0.1007196214805199 0.941 18 65 80 255
0.1412481959861551 -0.1007196214805199 0.941 18 65 80 255
0.14287529511330269 -0.10082665614734299 0.942 17 64 80 255
0.14450659155971854 -0.10093369081416606 0.943 17 65 82 255
0.14614210046933712 -0.10104072548098915 0.944 20 68 83 255
0.14793821996483747 -0.10125479481463531 0.946 21 68 83 255
0.14942581666636354 -0.10125479481463531 0.946 21 68 83 255
0.15123358375256685 -0.10146886414828148 0.948 21 68 83 255
0.15337098240602848 -0.1018970028155738 0.952 16 65 80 255
0.15519676805307422 -0.10211107214921997 0.954 15 64 79 255
0.15703001821286888 -0.10232514148286613 0.956 17 66 81 255
0.15920242406461166 -0.10275328015015846 0.96 19 68 84 255
0.1612212369018151 -0.1030743841506277 0.963 21 71 89 255
0.16308174094968894 -0.10328845348427386 0.965 24 74 95 255
0.16477921308711663 -0.10339548815109695 0.966 33 83 107 255
0.1666532476109365 -0.10360955748474311 0.968 45 98 119 255
0.16853486808251375 -0.10382362681838928 0.97 48 103 120 255
0.170248761396756 -0.10393066148521235 0.971 46 104 120 255
0.17196710653166977 -0.10403769615203544 0.972 46 106 123 255
0.1740469394736961 -0.10435880015250468 0.975 47 106 125 255
0.17577741847714154 -0.10446583481932777 0.976 44 103 124 255
0.17751240215913353 -0.10457286948615084 0.977 42 102 125 255
-0.02993238165277777 -0.10729479866841175 0.988 134 129 127 255
-0.028405657859579103 -0.10718620069405102 0.987 134 129 127 255
-0.02682764216368771 -0.1068604067709688 0.984 132 126 128 255
-0.025336158265044748 -0.1068604067709688 0.984 133 127 129 255
-0.02379639090354678 -0.10664321082224731 0.982 132 126 128 255
-0.022308290428198464 -0.10664321082224731 0.982 130 124 126 255
-0.020777945923057775 -0.10642601487352583 0.98 132 126 127 255
-0.01927349784878482 -0.10631741689916509 0.979 132 126 127 255
-0.017754045911748617 -0.10610022095044361 0.977 132 127 125 255
-0.016257437862703065 -0.10599162297608286 0.976 132 127 125 255
-0.014763975792216777 -0.10588302500172213 0.975 132 127 125 255
-0.013246392808615474 -0.1055572310786399 0.972 132 127 123 255
-0.011750105343841327 -0.10534003512991842 0.97 132 127 123 255
-0.010270558894320214 -0.10523143715555769 0.969 132 127 123 255
-0.008794114715577861 -0.10512283918119694 0.968 132 127 123 255
-0.0073207620848067066 -0.1050142412068362 0.967 130 124 121 255
-0.00584443391621034 -0.10479704525811472 0.965 130 122 120 255
-0.004374204265334855 -0.10457984930939324 0.963 131 123 122 255
-0.002916118767894797 -0.10457984930939324 0.963 129 121 120 255
-0.0014565400863749212 -0.1044712513350325 0.962 128 119 122 255
-4.707542295922426e-17 -0.10436265336067176 0.961 126 120 122 255
0.0014519978615732424 -0.10414545741195028 0.959 125 119 121 255
0.0029040061250374043 -0.10414545741195028 0.959 122 116 118 255
0.0043514929243932505 -0.10403685943758953 0.958 119 113 115 255
0.005789926242380306 -0.10381966348886805 0.956 119 113 115 255
0.007229914985512217 -0.10371106551450732 0.955 121 113 116 255
0.008648757447551688 -0.10338527159142509 0.952 122 116 118 255
0.010079774518574237 -0.10327667361706434 0.951 128 123 127 255
0.011483608109238647 -0.10295087969398213 0.948 131 129 132 255
0.012905693405101608 -0.10284228171962138 0.947 130 129 131 255
0.014309699613994628 -0.1026250857708999 0.945 124 122 125 255
0.01570774990218125 -0.10240788982217842 0.943 122 119 122 255
0.017118025843262136 -0.10229929184781768 0.942 121 117 120 255
0.018525394765787972 -0.10219069387345694 0.941 121 117 120 255
0.01992986649762675 -0.1020820958990962 0.94 121 117 120 255
0.02133145082696361 -0.10197349792473547 0.939 124 118 120 255
0.022730157502573105 -0.10186489995037472 0.938 125 119 121 255
0.024151744362410448 -0.10186489995037472 0.938 122 116 118 255
0.025573504420263196 -0.10186489995037472 0.938 125 119 121 255
0.026995447894919058 -0.10186489995037472 0.938 125 119 121 255
0.028387289077583686 -0.10175630197601399 0.937 125 119 121 255
0.029776301420724818 -0.10164770400165325 0.936 126 120 122 255
0.031195823346131926 -0.10164770400165325 0.936 126 120 124 255
0.03258072344721065 -0.1015391060272925 0.935 123 117 121 255
0.033926460732576734 -0.10132191007857103 0.933 121 115 119 255
0.03530425285061485 -0.10121331210421029 0.932 121 115 119 255
0.03671866121512234 -0.10121331210421029 0.932 123 117 121 255
0.038092417669899355 -0.10110471412984955 0.931 122 116 118 255
0.03950584543093646 -0.10110471412984955 0.931 121 115 117 255
0.0409195570010547 -0.10110471412984955 0.931 120 114 116 255
0.042333562596407893 -0.10110471412984955 0.931 118 114 115 255
0.04374787244161459 -0.10110471412984955 0.931 119 115 118 255
0.045113987106497465 -0.1009961161554888 0.93 120 116 119 255
0.04652741634421961 -0.1009961161554888 0.93 116 112 115 255
0.047941180199599864 -0.1009961161554888 0.93 115 111 114 255
0.04924914851677814 -0.10077892020676732 0.928 116 112 115 255
0.05060597937893577 -0.10067032223240659 0.927 114 110 113 255
0.05201624466459866 -0.10067032223240659 0.927 109 105 107 255
0.05342688441861672 -0.10067032223240659 0.927 108 104 105 255
0.0548379088997925 -0.10067032223240659 0.927 119 118 119 255
0.056249328378038914 -0.10067032223240659 0.927 130 129 133 255
0.057598951243488995 -0.10056172425804584 0.926 124 123 127 255
0.05900966811921422 -0.10056172425804584 0.926 124 123 127 255
0.06042081041201405 -0.10056172425804584 0.926 127 125 129 255
0.06176561479052119 -0.1004531262836851 0.925 125 124 128 255
0.06310781548321447 -0.10034452830932436 0.924 125 124 128 255
0.0645172452017742 -0.10034452830932436 0.924 124 123 127 255
0.06592714063123627 -0.10034452830932436 0.924 123 122 126 255
0.06733751210774575 -0.10034452830932436 0.924 123 122 126 255
0.06867396698343596 -0.10023593033496363 0.923 124 123 127 255
0.07008379417791774 -0.10023593033496363 0.923 124 123 127 255
0.07149412796308378 -0.10023593033496363 0.923 125 124 128 255
0.07290497872089491 -0.10023593033496363 0.923 125 124 128 255
0.07431635684833436 -0.10023593033496363 0.923 124 123 125 255
0.07581031855702178 -0.10034452830932436 0.924 125 124 126 255
0.07722431297329746 -0.10034452830932436 0.924 123 122 124 255
0.07863886664865406 -0.10034452830932436 0.924 124 123 127 255
0.08005399005461275 -0.10034452830932436 0.924 124 123 127 255
0.08155786434345258 -0.1004531262836851 0.925 124 123 127 255
0.0829756914779978 -0.1004531262836851 0.925 123 122 126 255
0.0843941205092902 -0.1004531262836851 0.925 124 123 127 255
0.08581316198856875 -0.1004531262836851 0.925 123 122 126 255
0.087232826484966 -0.1004531262836851 0.925 124 123 127 255
0.08865312458582619 -0.1004531262836851 0.925 127 126 130 255
0.09007406689702899 -0.1004531262836851 0.925 127 126 130 255
0.09149566404331137 -0.1004531262836851 0.925 127 126 130 255
0.092917926668592 -0.1004531262836851 0.925 127 126 130 255
0.09423887531150055 -0.10034452830932436 0.924 129 128 132 255
0.09555743267070034 -0.10023593033496363 0.923 126 125 129 255
0.09697867617562814 -0.10023593033496363 0.923 125 124 128 255
0.09829401683947814 -0.10012733236060288 0.922 124 123 127 255
0.09971514315745962 -0.10012733236060288 0.922 125 124 128 255
0.10113699687226621 -0.10012733236060288 0.922 126 125 129 255
0.10267082473273964 -0.10023593033496363 0.923 124 123 127 255
0.10409570927365519 -0.10023593033496363 0.923 124 122 129 255
0.10563567868569301 -0.10034452830932436 0.924 128 126 133 255
0.1072953800390629 -0.10056172425804584 0.926 129 128 135 255
0.10872721750677264 -0.10056172425804584 0.926 130 129 136 255
0.1102788137772631 -0.10067032223240659 0.927 130 129 136 255
0.11183431264624602 -0.10077892020676732 0.928 129 129 135 255
0.11339372772148947 -0.10088751818112807 0.929 130 129 136 255
0.11495707268243208 -0.1009961161554888 0.93 132 131 140 255
0.1165243612806596 -0.10110471412984955 0.931 133 132 141 255
0.11809560734038967 -0.10121331210421029 0.932 134 136 144 255
0.11967082475895774 -0.10132191007857103 0.933 134 136 143 255
0.12112020949070455 -0.10132191007857103 0.933 136 138 144 255
0.1227018571923791 -0.10143050805293177 0.934 136 138 144 255
0.12415458959590285 -0.10143050805293177 0.934 132 137 142 255
0.12560823597694412 -0.10143050805293177 0.934 127 132 137 255
0.12719884917175836 -0.1015391060272925 0.935 129 135 146 255
0.12865591575447208 -0.1015391060272925 0.935 52 70 83 255
0.13025309055668585 -0.10164770400165325 0.936 28 62 78 255
0.13185434648006322 -0.10175630197601399 0.937 21 62 77 255
0.1334596980537391 -0.10186489995037472 0.938 19 63 79 255
